ply
format ascii 1.0
comment created by MATLAB ply_write
element vertex 1698
property float x
property float y
property float z
end_header
0.045890 0.156933 0.127335 
0.046073 0.157193 0.126949 
0.046256 0.157453 0.126563 
0.046334 0.157754 0.126155 
0.046414 0.158055 0.125747 
0.046493 0.158354 0.125339 
0.046572 0.158655 0.124931 
0.046755 0.158915 0.124545 
0.046730 0.159256 0.124116 
0.046809 0.159557 0.123708 
0.046785 0.159897 0.123279 
0.046863 0.160198 0.122871 
0.046736 0.160580 0.122420 
0.046711 0.160921 0.121990 
0.046583 0.161302 0.121538 
0.046559 0.161643 0.121109 
0.046431 0.162024 0.120658 
0.046303 0.162406 0.120207 
0.046278 0.162747 0.119777 
0.046358 0.163047 0.119370 
0.046540 0.163307 0.118984 
0.046620 0.163608 0.118576 
0.046595 0.163948 0.118146 
0.046674 0.164249 0.117738 
0.046650 0.164590 0.117309 
0.046728 0.164891 0.116901 
0.046704 0.165231 0.116472 
0.046473 0.165653 0.115999 
0.046344 0.166035 0.115547 
0.046217 0.166416 0.115096 
0.045985 0.166838 0.114623 
0.045132 0.167502 0.114019 
0.044797 0.167964 0.113524 
0.044670 0.168346 0.113073 
0.044334 0.168808 0.112578 
0.044620 0.169027 0.112214 
0.044803 0.169287 0.111828 
0.045089 0.169508 0.111464 
0.045272 0.169768 0.111078 
0.045247 0.170108 0.110648 
0.045223 0.170449 0.110219 
0.045198 0.170790 0.109789 
0.045071 0.171172 0.109338 
0.044839 0.171594 0.108865 
0.044711 0.171974 0.108414 
0.043651 0.172720 0.107767 
0.043420 0.173141 0.107294 
0.043395 0.173483 0.106864 
0.043474 0.173783 0.106456 
0.043449 0.174124 0.106027 
0.042700 0.174748 0.105445 
0.042262 0.175251 0.104929 
0.041616 0.175834 0.104368 
0.041177 0.176337 0.103852 
0.040946 0.176759 0.103379 
0.040714 0.177180 0.102905 
0.040793 0.177481 0.102498 
0.040976 0.177741 0.102112 
0.041366 0.177920 0.101769 
0.041859 0.178059 0.101449 
0.042352 0.178198 0.101128 
0.042846 0.178337 0.100807 
0.043546 0.178394 0.100530 
0.043936 0.178574 0.100188 
0.044533 0.178672 0.099889 
0.045026 0.178811 0.099568 
0.045519 0.178950 0.099247 
0.046013 0.179088 0.098927 
0.046505 0.179228 0.098606 
0.046999 0.179367 0.098285 
0.047389 0.179546 0.097943 
0.047882 0.179684 0.097622 
0.048375 0.179823 0.097301 
0.048869 0.179962 0.096981 
0.049362 0.180101 0.096660 
0.049752 0.180280 0.096318 
0.050246 0.180419 0.095997 
0.050738 0.180558 0.095676 
0.051232 0.180697 0.095356 
0.051621 0.180876 0.095013 
0.052011 0.181055 0.094671 
0.052504 0.181194 0.094350 
0.052894 0.181373 0.094007 
0.053284 0.181552 0.093665 
0.053674 0.181732 0.093323 
0.054063 0.181912 0.092980 
0.054454 0.182090 0.092638 
0.054843 0.182270 0.092295 
0.055129 0.182489 0.091931 
0.055519 0.182668 0.091588 
0.055805 0.182888 0.091224 
0.056091 0.183108 0.090860 
0.056378 0.183327 0.090496 
0.056664 0.183547 0.090131 
0.056847 0.183807 0.089745 
0.057133 0.184027 0.089382 
0.057212 0.184327 0.088973 
0.057498 0.184548 0.088610 
0.057577 0.184847 0.088201 
0.057657 0.185148 0.087794 
0.057735 0.185449 0.087386 
0.056157 0.186396 0.086630 
0.056547 0.186575 0.086288 
0.056730 0.186835 0.085902 
0.056913 0.187095 0.085516 
0.057199 0.187315 0.085151 
0.057485 0.187535 0.084787 
0.057667 0.187795 0.084401 
0.057747 0.188095 0.083993 
0.057826 0.188396 0.083586 
0.058009 0.188656 0.083200 
0.058191 0.188916 0.082814 
0.058271 0.189216 0.082406 
0.058453 0.189477 0.082020 
0.058532 0.189777 0.081612 
0.058508 0.190118 0.081183 
0.058587 0.190419 0.080775 
0.058666 0.190719 0.080368 
0.058745 0.191020 0.079960 
0.058721 0.191361 0.079530 
0.058696 0.191702 0.079101 
0.058775 0.192002 0.078693 
0.058751 0.192343 0.078263 
0.058726 0.192684 0.077834 
0.058599 0.193065 0.077383 
0.058574 0.193407 0.076953 
0.058239 0.193868 0.076458 
0.058111 0.194250 0.076007 
0.057879 0.194672 0.075534 
0.057337 0.195214 0.074995 
0.057312 0.195556 0.074566 
0.056978 0.196018 0.074071 
0.055296 0.197006 0.073294 
0.055479 0.197266 0.072908 
0.055558 0.197567 0.072500 
0.055741 0.197827 0.072114 
0.055716 0.198168 0.071685 
0.055692 0.198508 0.071255 
0.055667 0.198849 0.070825 
0.055539 0.199231 0.070374 
0.055204 0.199693 0.069879 
0.054869 0.200155 0.069384 
0.054431 0.200658 0.068868 
0.053992 0.201161 0.068352 
0.051379 0.202512 0.067378 
0.051354 0.202852 0.066948 
0.051226 0.203234 0.066497 
0.051098 0.203615 0.066046 
0.051384 0.203835 0.065681 
0.050842 0.204378 0.065143 
0.050404 0.204881 0.064626 
0.049526 0.205551 0.064015 
0.048502 0.206270 0.063367 
0.039541 0.210338 0.060573 
0.039724 0.210598 0.060187 
0.039797 0.210900 0.059777 
0.039760 0.211244 0.059343 
0.040053 0.211462 0.058982 
0.036944 0.212975 0.057882 
0.033615 0.214570 0.056734 
0.033579 0.214914 0.056301 
-0.087476 0.163922 0.155399 
-0.086178 0.163768 0.155263 
-0.084880 0.163615 0.155126 
-0.083954 0.163600 0.154906 
-0.082408 0.163354 0.154824 
-0.081854 0.163477 0.154522 
-0.080556 0.163324 0.154385 
-0.080002 0.163446 0.154082 
-0.079571 0.163614 0.153752 
-0.078645 0.163599 0.153532 
-0.078586 0.163905 0.153118 
-0.077041 0.163660 0.153037 
-0.076734 0.163874 0.152678 
-0.076056 0.163950 0.152403 
-0.075501 0.164073 0.152100 
-0.074823 0.164149 0.151825 
-0.073911 0.164139 0.151602 
-0.073495 0.164313 0.151268 
-0.072494 0.164272 0.151067 
-0.071845 0.164360 0.150786 
-0.071078 0.164406 0.150532 
-0.070311 0.164450 0.150277 
-0.069544 0.164496 0.150023 
-0.068661 0.164498 0.149794 
-0.067661 0.164456 0.149592 
-0.066894 0.164502 0.149338 
-0.065660 0.164374 0.149188 
-0.064893 0.164420 0.148934 
-0.063893 0.164379 0.148732 
-0.062892 0.164338 0.148530 
-0.061425 0.164125 0.148433 
-0.060658 0.164169 0.148179 
-0.053467 0.161849 0.149371 
-0.052583 0.161851 0.149142 
-0.052167 0.162025 0.148809 
-0.051750 0.162199 0.148475 
-0.051217 0.162330 0.148168 
-0.050801 0.162505 0.147835 
-0.050385 0.162679 0.147502 
-0.049968 0.162853 0.147168 
-0.049552 0.163027 0.146835 
-0.049019 0.163158 0.146528 
-0.015365 0.150897 0.153543 
-0.013976 0.150697 0.153419 
-0.013245 0.150749 0.153152 
-0.012733 0.150883 0.152837 
-0.010466 0.150349 0.152902 
-0.008967 0.150107 0.152801 
-0.007468 0.149866 0.152699 
-0.006188 0.149708 0.152551 
-0.004689 0.149466 0.152450 
-0.003849 0.149476 0.152206 
-0.003556 0.149694 0.151845 
-0.002606 0.149662 0.151625 
-0.001874 0.149713 0.151357 
-0.001582 0.149931 0.150995 
0.008571 0.146390 0.152766 
0.011860 0.145435 0.153031 
0.013388 0.145169 0.152927 
0.014192 0.145186 0.152671 
0.014893 0.145244 0.152394 
0.015593 0.145301 0.152117 
0.016190 0.145399 0.151817 
0.019271 0.144525 0.152039 
0.019972 0.144583 0.151762 
0.020776 0.144600 0.151506 
0.021579 0.144618 0.151251 
0.022176 0.144716 0.150951 
0.022980 0.144733 0.150696 
0.023577 0.144831 0.150397 
0.024173 0.144929 0.150097 
0.024667 0.145067 0.149776 
0.025264 0.145165 0.149477 
0.025757 0.145304 0.149156 
0.026250 0.145443 0.148835 
0.026744 0.145582 0.148515 
0.027237 0.145720 0.148194 
0.027730 0.145859 0.147873 
0.028223 0.145998 0.147552 
0.028614 0.146176 0.147210 
0.029210 0.146275 0.146911 
0.029600 0.146454 0.146568 
0.030403 0.146471 0.146312 
0.031104 0.146529 0.146035 
0.031805 0.146587 0.145758 
0.032297 0.146725 0.145437 
0.032894 0.146823 0.145137 
0.033387 0.146961 0.144816 
0.033881 0.147100 0.144495 
0.034375 0.147239 0.144175 
0.034764 0.147418 0.143832 
0.035257 0.147556 0.143511 
0.035647 0.147736 0.143169 
0.036037 0.147915 0.142826 
0.036426 0.148094 0.142483 
0.036816 0.148273 0.142141 
0.037102 0.148493 0.141777 
0.037492 0.148672 0.141434 
0.037779 0.148891 0.141070 
0.038065 0.149111 0.140706 
0.038247 0.149371 0.140320 
0.038533 0.149591 0.139955 
0.038819 0.149811 0.139591 
0.039105 0.150030 0.139227 
0.039392 0.150250 0.138863 
0.039678 0.150469 0.138498 
0.040067 0.150649 0.138156 
0.040354 0.150868 0.137792 
0.040640 0.151088 0.137427 
0.040926 0.151307 0.137063 
0.041212 0.151527 0.136699 
0.041603 0.151706 0.136356 
0.041785 0.151966 0.135970 
0.042071 0.152186 0.135606 
0.042357 0.152405 0.135242 
0.042644 0.152625 0.134877 
0.042827 0.152885 0.134491 
0.043009 0.153145 0.134105 
0.043192 0.153405 0.133719 
0.043375 0.153665 0.133333 
0.043557 0.153925 0.132947 
0.043740 0.154185 0.132562 
0.043818 0.154486 0.132154 
0.044001 0.154746 0.131768 
0.044184 0.155006 0.131382 
0.044366 0.155267 0.130996 
0.044549 0.155527 0.130610 
0.044628 0.155827 0.130202 
0.044811 0.156087 0.129816 
0.044994 0.156347 0.129430 
0.045176 0.156607 0.129044 
0.045359 0.156868 0.128658 
0.045542 0.157128 0.128272 
0.045724 0.157388 0.127886 
0.045804 0.157688 0.127478 
0.045986 0.157948 0.127092 
0.046066 0.158249 0.126685 
0.046144 0.158550 0.126277 
0.046223 0.158850 0.125869 
0.046303 0.159151 0.125462 
0.046485 0.159411 0.125076 
0.046565 0.159711 0.124668 
0.046643 0.160012 0.124260 
0.046722 0.160313 0.123852 
0.046698 0.160653 0.123423 
0.046673 0.160995 0.122994 
0.046649 0.161336 0.122564 
0.046521 0.161717 0.122113 
0.046497 0.162058 0.121684 
0.046369 0.162440 0.121232 
0.046137 0.162862 0.120760 
0.046112 0.163203 0.120330 
0.046088 0.163544 0.119901 
0.046064 0.163885 0.119471 
0.046143 0.164186 0.119064 
0.046222 0.164486 0.118656 
0.046405 0.164746 0.118270 
0.046381 0.165087 0.117841 
0.046459 0.165388 0.117433 
0.046435 0.165729 0.117003 
0.046410 0.166070 0.116574 
0.046283 0.166452 0.116123 
0.046052 0.166874 0.115651 
0.045923 0.167256 0.115199 
0.045278 0.167840 0.114640 
0.044632 0.168424 0.114080 
0.043986 0.169008 0.113520 
0.043859 0.169389 0.113069 
0.044041 0.169649 0.112683 
0.044121 0.169950 0.112275 
0.044303 0.170210 0.111889 
0.044382 0.170511 0.111481 
0.044461 0.170811 0.111074 
0.044644 0.171071 0.110688 
0.044516 0.171453 0.110237 
0.044595 0.171753 0.109829 
0.044467 0.172135 0.109378 
0.042994 0.173043 0.108645 
0.043072 0.173344 0.108237 
0.043255 0.173604 0.107851 
0.043334 0.173905 0.107443 
0.043413 0.174205 0.107036 
0.043285 0.174587 0.106585 
0.042639 0.175171 0.106025 
0.042408 0.175593 0.105552 
0.041762 0.176176 0.104992 
0.041324 0.176679 0.104476 
0.040367 0.177385 0.103851 
0.040136 0.177807 0.103378 
0.040215 0.178107 0.102970 
0.040398 0.178367 0.102584 
0.040787 0.178547 0.102242 
0.041177 0.178726 0.101899 
0.041878 0.178783 0.101622 
0.042371 0.178922 0.101301 
0.042968 0.179020 0.101002 
0.043565 0.179118 0.100703 
0.044161 0.179217 0.100404 
0.044655 0.179355 0.100083 
0.045148 0.179494 0.099762 
0.045641 0.179633 0.099441 
0.046135 0.179771 0.099121 
0.046628 0.179910 0.098800 
0.047121 0.180049 0.098479 
0.047614 0.180187 0.098158 
0.048108 0.180326 0.097837 
0.048601 0.180465 0.097516 
0.048991 0.180643 0.097173 
0.049587 0.180741 0.096874 
0.049977 0.180920 0.096532 
0.050470 0.181059 0.096211 
0.050964 0.181198 0.095890 
0.051353 0.181377 0.095547 
0.051847 0.181515 0.095227 
0.052236 0.181695 0.094884 
0.052626 0.181874 0.094542 
0.053016 0.182053 0.094199 
0.053406 0.182232 0.093856 
0.053692 0.182452 0.093492 
0.054081 0.182631 0.093150 
0.054471 0.182810 0.092807 
0.054757 0.183030 0.092443 
0.055147 0.183209 0.092100 
0.055433 0.183428 0.091736 
0.055719 0.183648 0.091372 
0.056005 0.183868 0.091007 
0.056188 0.184128 0.090621 
0.056475 0.184347 0.090257 
0.056658 0.184607 0.089871 
0.056840 0.184867 0.089485 
0.057023 0.185127 0.089099 
0.057101 0.185428 0.088691 
0.057181 0.185729 0.088284 
0.057260 0.186029 0.087876 
0.056097 0.186816 0.087208 
0.056279 0.187076 0.086822 
0.056462 0.187336 0.086436 
0.056645 0.187596 0.086050 
0.056827 0.187856 0.085664 
0.057113 0.188076 0.085300 
0.057296 0.188336 0.084914 
0.057479 0.188596 0.084528 
0.057558 0.188896 0.084120 
0.057741 0.189156 0.083734 
0.057923 0.189416 0.083348 
0.058106 0.189677 0.082962 
0.058289 0.189937 0.082576 
0.058368 0.190237 0.082168 
0.058446 0.190538 0.081760 
0.058422 0.190879 0.081331 
0.058605 0.191139 0.080945 
0.058684 0.191439 0.080537 
0.058763 0.191740 0.080130 
0.058739 0.192081 0.079700 
0.058714 0.192422 0.079271 
0.058690 0.192763 0.078841 
0.058665 0.193105 0.078412 
0.058537 0.193486 0.077961 
0.058513 0.193827 0.077531 
0.058281 0.194250 0.077059 
0.058050 0.194672 0.076586 
0.057818 0.195094 0.076113 
0.057277 0.195637 0.075575 
0.057148 0.196019 0.075124 
0.056813 0.196481 0.074630 
0.054718 0.197632 0.073766 
0.055004 0.197852 0.073401 
0.055187 0.198112 0.073015 
0.055162 0.198453 0.072586 
0.055242 0.198753 0.072178 
0.055114 0.199135 0.071727 
0.055089 0.199476 0.071298 
0.054754 0.199938 0.070803 
0.054419 0.200402 0.070309 
0.054188 0.200824 0.069836 
0.053853 0.201286 0.069342 
0.053103 0.201910 0.068760 
0.051112 0.203021 0.067918 
0.050570 0.203564 0.067380 
0.050131 0.204067 0.066864 
0.050314 0.204327 0.066478 
0.050186 0.204709 0.066027 
0.050058 0.205091 0.065576 
0.049058 0.205805 0.064936 
0.039332 0.210171 0.061981 
0.039734 0.210348 0.061642 
0.039587 0.210733 0.061184 
0.039660 0.211035 0.060775 
0.039843 0.211295 0.060389 
0.039587 0.211723 0.059908 
0.036698 0.213154 0.058858 
0.036880 0.213414 0.058472 
0.033991 0.214844 0.057421 
-0.086492 0.164339 0.155822 
-0.085318 0.164231 0.155658 
-0.083773 0.163985 0.155576 
-0.082475 0.163831 0.155438 
-0.080929 0.163586 0.155357 
-0.079879 0.163524 0.155164 
-0.079077 0.163555 0.154917 
-0.078399 0.163630 0.154641 
-0.077597 0.163661 0.154393 
-0.076671 0.163645 0.154173 
-0.076240 0.163813 0.153843 
-0.075810 0.163981 0.153512 
-0.075131 0.164058 0.153237 
-0.074453 0.164134 0.152961 
-0.073686 0.164179 0.152706 
-0.072803 0.164180 0.152478 
-0.072504 0.164397 0.152118 
-0.071737 0.164442 0.151863 
-0.071204 0.164573 0.151556 
-0.070554 0.164661 0.151275 
-0.069788 0.164705 0.151020 
-0.069138 0.164793 0.150739 
-0.068371 0.164838 0.150484 
-0.067488 0.164840 0.150256 
-0.066604 0.164841 0.150027 
-0.065604 0.164800 0.149825 
-0.064838 0.164844 0.149570 
-0.063837 0.164803 0.149368 
-0.062837 0.164761 0.149166 
-0.061954 0.164763 0.148937 
-0.060837 0.164679 0.148761 
-0.059720 0.164595 0.148585 
-0.052529 0.162271 0.149774 
-0.051996 0.162401 0.149467 
-0.051580 0.162575 0.149133 
-0.050930 0.162663 0.148852 
-0.050514 0.162837 0.148518 
-0.050098 0.163011 0.148185 
-0.049682 0.163185 0.147852 
-0.049265 0.163359 0.147518 
-0.048732 0.163489 0.147211 
-0.014440 0.150963 0.154349 
-0.013380 0.150888 0.154153 
-0.012539 0.150897 0.153910 
-0.012138 0.151073 0.153570 
-0.010200 0.150663 0.153564 
-0.007604 0.150002 0.153699 
-0.006654 0.149970 0.153479 
-0.005813 0.149979 0.153235 
-0.004205 0.149695 0.153157 
-0.003693 0.149829 0.152842 
-0.003072 0.149922 0.152551 
-0.002121 0.149889 0.152331 
-0.001609 0.150024 0.152016 
-0.000988 0.150116 0.151725 
0.000620 0.149832 0.151647 
0.009419 0.146796 0.153117 
0.009705 0.147014 0.152752 
0.013614 0.145815 0.153146 
0.014418 0.145831 0.152890 
0.015222 0.145848 0.152633 
0.016026 0.145865 0.152378 
0.016312 0.146085 0.152013 
0.019290 0.145250 0.152212 
0.020094 0.145266 0.151956 
0.020794 0.145324 0.151678 
0.021701 0.145300 0.151444 
0.022401 0.145358 0.151167 
0.023101 0.145415 0.150889 
0.023595 0.145553 0.150568 
0.024295 0.145610 0.150290 
0.024789 0.145749 0.149969 
0.025385 0.145847 0.149670 
0.025879 0.145985 0.149348 
0.026372 0.146123 0.149028 
0.026865 0.146262 0.148707 
0.027358 0.146400 0.148385 
0.027852 0.146538 0.148065 
0.028345 0.146677 0.147744 
0.028735 0.146856 0.147401 
0.029228 0.146994 0.147080 
0.029721 0.147133 0.146759 
0.030422 0.147190 0.146481 
0.031225 0.147207 0.146225 
0.031822 0.147304 0.145926 
0.032315 0.147443 0.145605 
0.032912 0.147541 0.145306 
0.033509 0.147639 0.145006 
0.033898 0.147818 0.144663 
0.034392 0.147956 0.144343 
0.034885 0.148094 0.144021 
0.035274 0.148274 0.143679 
0.035768 0.148412 0.143358 
0.036157 0.148591 0.143015 
0.036443 0.148810 0.142650 
0.036833 0.148989 0.142308 
0.037119 0.149209 0.141944 
0.037510 0.149388 0.141601 
0.037796 0.149608 0.141237 
0.038082 0.149827 0.140872 
0.038367 0.150047 0.140508 
0.038654 0.150266 0.140144 
0.038940 0.150485 0.139779 
0.039226 0.150705 0.139415 
0.039512 0.150925 0.139051 
0.039799 0.151144 0.138686 
0.040085 0.151364 0.138322 
0.040371 0.151583 0.137958 
0.040657 0.151803 0.137593 
0.040944 0.152023 0.137229 
0.041230 0.152242 0.136865 
0.041516 0.152462 0.136501 
0.041802 0.152681 0.136136 
0.042088 0.152900 0.135772 
0.042271 0.153160 0.135386 
0.042557 0.153380 0.135021 
0.042740 0.153640 0.134635 
0.042922 0.153900 0.134249 
0.043105 0.154160 0.133863 
0.043288 0.154420 0.133477 
0.043470 0.154681 0.133091 
0.043653 0.154941 0.132705 
0.043836 0.155201 0.132319 
0.044018 0.155461 0.131933 
0.044098 0.155761 0.131526 
0.044280 0.156021 0.131140 
0.044463 0.156281 0.130754 
0.044541 0.156582 0.130346 
0.044724 0.156842 0.129960 
0.044907 0.157103 0.129574 
0.045089 0.157363 0.129188 
0.045169 0.157664 0.128781 
0.045352 0.157924 0.128395 
0.045534 0.158184 0.128009 
0.045717 0.158444 0.127623 
0.045796 0.158745 0.127215 
0.045876 0.159045 0.126808 
0.046058 0.159305 0.126422 
0.046137 0.159606 0.126014 
0.046216 0.159907 0.125606 
0.046295 0.160207 0.125199 
0.046478 0.160467 0.124813 
0.046453 0.160808 0.124383 
0.046532 0.161109 0.123975 
0.046612 0.161409 0.123568 
0.046484 0.161792 0.123117 
0.046355 0.162173 0.122666 
0.046435 0.162474 0.122258 
0.046306 0.162856 0.121807 
0.045972 0.163319 0.121313 
0.045948 0.163660 0.120884 
0.045820 0.164042 0.120433 
0.045796 0.164383 0.120004 
0.045771 0.164724 0.119574 
0.045850 0.165025 0.119167 
0.045929 0.165325 0.118759 
0.046008 0.165626 0.118351 
0.046087 0.165927 0.117943 
0.046167 0.166227 0.117536 
0.046246 0.166528 0.117129 
0.046118 0.166910 0.116677 
0.045990 0.167292 0.116226 
0.045655 0.167755 0.115732 
0.045217 0.168258 0.115216 
0.044674 0.168802 0.114679 
0.043201 0.169711 0.113946 
0.042969 0.170133 0.113473 
0.043255 0.170353 0.113109 
0.042920 0.170816 0.112615 
0.042792 0.171198 0.112164 
0.042975 0.171458 0.111778 
0.043571 0.171555 0.111478 
0.042098 0.172465 0.110746 
0.042177 0.172765 0.110338 
0.042360 0.173025 0.109952 
0.042542 0.173285 0.109566 
0.042725 0.173545 0.109180 
0.043011 0.173765 0.108816 
0.043090 0.174066 0.108408 
0.043170 0.174366 0.108001 
0.043146 0.174707 0.107571 
0.043017 0.175089 0.107121 
0.042475 0.175634 0.106583 
0.042347 0.176015 0.106132 
0.042012 0.176478 0.105637 
0.039503 0.177793 0.104688 
0.039479 0.178134 0.104259 
0.039454 0.178475 0.103830 
0.039741 0.178694 0.103465 
0.039820 0.178995 0.103058 
0.040209 0.179174 0.102715 
0.040703 0.179313 0.102394 
0.041300 0.179411 0.102095 
0.041793 0.179549 0.101774 
0.042493 0.179607 0.101496 
0.043090 0.179704 0.101197 
0.043687 0.179802 0.100898 
0.044180 0.179941 0.100577 
0.044777 0.180038 0.100277 
0.045270 0.180177 0.099956 
0.045866 0.180274 0.099656 
0.046360 0.180413 0.099336 
0.046853 0.180551 0.099015 
0.047347 0.180689 0.098693 
0.047839 0.180828 0.098373 
0.048333 0.180967 0.098052 
0.048826 0.181105 0.097731 
0.049423 0.181203 0.097431 
0.049812 0.181382 0.097089 
0.050306 0.181521 0.096768 
0.050695 0.181699 0.096425 
0.051085 0.181878 0.096082 
0.051579 0.182017 0.095761 
0.051968 0.182196 0.095419 
0.052358 0.182374 0.095076 
0.052747 0.182553 0.094733 
0.053033 0.182773 0.094369 
0.053424 0.182952 0.094026 
0.053710 0.183172 0.093662 
0.054099 0.183351 0.093319 
0.054386 0.183570 0.092955 
0.054672 0.183789 0.092590 
0.054958 0.184009 0.092226 
0.055244 0.184229 0.091862 
0.055530 0.184448 0.091498 
0.055816 0.184668 0.091133 
0.056102 0.184888 0.090769 
0.056285 0.185148 0.090383 
0.056468 0.185408 0.089997 
0.056547 0.185708 0.089589 
0.056730 0.185968 0.089203 
0.056809 0.186269 0.088796 
0.056473 0.186732 0.088302 
0.056035 0.187235 0.087785 
0.056218 0.187495 0.087399 
0.056297 0.187796 0.086992 
0.056376 0.188096 0.086584 
0.056455 0.188398 0.086177 
0.056742 0.188616 0.085812 
0.056924 0.188877 0.085426 
0.057003 0.189178 0.085019 
0.057186 0.189438 0.084633 
0.057368 0.189698 0.084247 
0.057551 0.189958 0.083861 
0.057838 0.190177 0.083496 
0.058020 0.190437 0.083110 
0.058099 0.190739 0.082703 
0.058282 0.190999 0.082317 
0.058361 0.191299 0.081909 
0.058440 0.191600 0.081502 
0.058520 0.191900 0.081094 
0.058598 0.192201 0.080686 
0.058574 0.192542 0.080257 
0.058549 0.192883 0.079827 
0.058629 0.193185 0.079420 
0.058500 0.193566 0.078969 
0.058476 0.193907 0.078540 
0.058348 0.194289 0.078088 
0.058220 0.194671 0.077638 
0.057989 0.195093 0.077165 
0.057654 0.195556 0.076671 
0.057216 0.196059 0.076155 
0.056984 0.196482 0.075682 
0.056649 0.196945 0.075188 
0.054140 0.198259 0.074239 
0.054426 0.198479 0.073875 
0.054609 0.198739 0.073489 
0.054585 0.199080 0.073059 
0.054457 0.199462 0.072608 
0.054329 0.199844 0.072157 
0.054304 0.200185 0.071728 
0.054073 0.200607 0.071255 
0.053945 0.200989 0.070804 
0.053506 0.201492 0.070288 
0.052550 0.202199 0.069664 
0.051491 0.202945 0.069018 
0.048665 0.204383 0.068002 
0.048957 0.204601 0.067640 
0.049140 0.204861 0.067254 
0.049213 0.205163 0.066844 
0.044350 0.207349 0.065368 
0.042449 0.208405 0.064532 
0.037147 0.210758 0.062961 
0.037769 0.210851 0.062670 
0.038061 0.211069 0.062308 
0.038244 0.211329 0.061922 
0.038426 0.211589 0.061536 
0.038609 0.211849 0.061150 
0.037146 0.212737 0.060408 
0.036561 0.213290 0.059857 
0.036525 0.213634 0.059423 
0.033965 0.214941 0.058445 
-0.085326 0.165016 0.155859 
-0.082913 0.164447 0.155969 
-0.080872 0.164016 0.155997 
-0.079822 0.163954 0.155805 
-0.078400 0.163754 0.155695 
-0.077846 0.163876 0.155392 
-0.076548 0.163722 0.155255 
-0.075870 0.163798 0.154979 
-0.075316 0.163920 0.154676 
-0.074528 0.163956 0.154425 
-0.073995 0.164087 0.154118 
-0.073462 0.164217 0.153810 
-0.072696 0.164261 0.153555 
-0.072279 0.164435 0.153221 
-0.071630 0.164523 0.152940 
-0.070980 0.164611 0.152659 
-0.070330 0.164698 0.152378 
-0.069914 0.164872 0.152044 
-0.068914 0.164830 0.151841 
-0.068498 0.165004 0.151508 
-0.067614 0.165005 0.151279 
-0.067315 0.165222 0.150920 
-0.066315 0.165180 0.150717 
-0.065432 0.165182 0.150488 
-0.064665 0.165226 0.150233 
-0.063782 0.165227 0.150004 
-0.062899 0.165229 0.149775 
-0.062015 0.165230 0.149546 
-0.061015 0.165188 0.149344 
-0.060132 0.165190 0.149115 
-0.058898 0.165062 0.148965 
-0.051826 0.162777 0.150125 
-0.051293 0.162908 0.149817 
-0.050760 0.163039 0.149510 
-0.050344 0.163212 0.149176 
-0.049928 0.163386 0.148842 
-0.049511 0.163560 0.148509 
-0.048978 0.163691 0.148201 
-0.048562 0.163865 0.147868 
-0.014064 0.151237 0.155036 
-0.013114 0.151204 0.154816 
-0.012273 0.151212 0.154572 
-0.011871 0.151389 0.154233 
-0.008289 0.150349 0.154580 
-0.006900 0.150148 0.154454 
-0.005950 0.150115 0.154234 
-0.005219 0.150166 0.153966 
-0.004049 0.150049 0.153793 
-0.003318 0.150099 0.153525 
-0.002587 0.150149 0.153257 
-0.001747 0.150158 0.153013 
-0.001235 0.150292 0.152698 
-0.000614 0.150384 0.152407 
-0.000102 0.150519 0.152092 
0.000739 0.150527 0.151848 
0.009645 0.147444 0.153337 
0.009931 0.147663 0.152972 
0.013841 0.146461 0.153365 
0.014644 0.146477 0.153108 
0.015552 0.146453 0.152873 
0.016252 0.146510 0.152595 
0.016434 0.146770 0.152209 
0.019308 0.145974 0.152385 
0.020216 0.145950 0.152150 
0.020916 0.146007 0.151873 
0.021720 0.146023 0.151616 
0.022420 0.146080 0.151338 
0.023120 0.146137 0.151060 
0.023717 0.146234 0.150761 
0.024417 0.146291 0.150483 
0.024910 0.146430 0.150162 
0.025507 0.146527 0.149862 
0.026000 0.146665 0.149541 
0.026494 0.146804 0.149220 
0.026986 0.146942 0.148898 
0.027376 0.147121 0.148556 
0.027870 0.147259 0.148234 
0.028362 0.147398 0.147914 
0.028856 0.147535 0.147592 
0.029246 0.147714 0.147250 
0.029738 0.147852 0.146928 
0.030439 0.147909 0.146650 
0.031139 0.147966 0.146372 
0.031839 0.148023 0.146094 
0.032333 0.148162 0.145773 
0.032930 0.148259 0.145474 
0.033423 0.148397 0.145152 
0.034020 0.148495 0.144853 
0.034409 0.148674 0.144510 
0.034902 0.148812 0.144189 
0.035292 0.148991 0.143846 
0.035785 0.149129 0.143525 
0.036175 0.149307 0.143182 
0.036564 0.149487 0.142840 
0.036955 0.149666 0.142497 
0.037240 0.149885 0.142132 
0.037526 0.150104 0.141768 
0.037812 0.150324 0.141404 
0.038099 0.150543 0.141040 
0.038488 0.150722 0.140696 
0.038671 0.150982 0.140310 
0.038957 0.151202 0.139946 
0.039244 0.151421 0.139582 
0.039530 0.151641 0.139218 
0.039816 0.151860 0.138853 
0.040102 0.152079 0.138488 
0.040389 0.152299 0.138124 
0.040675 0.152518 0.137760 
0.040960 0.152738 0.137396 
0.041246 0.152958 0.137031 
0.041532 0.153178 0.136667 
0.041819 0.153396 0.136302 
0.042002 0.153656 0.135916 
0.042288 0.153876 0.135552 
0.042470 0.154136 0.135166 
0.042653 0.154396 0.134780 
0.042836 0.154656 0.134394 
0.043018 0.154916 0.134008 
0.043201 0.155176 0.133622 
0.043487 0.155396 0.133258 
0.043566 0.155697 0.132850 
0.043749 0.155957 0.132464 
0.043932 0.156217 0.132078 
0.044011 0.156517 0.131670 
0.044194 0.156777 0.131284 
0.044376 0.157037 0.130898 
0.044455 0.157339 0.130491 
0.044534 0.157640 0.130083 
0.044717 0.157900 0.129697 
0.044900 0.158160 0.129312 
0.045082 0.158420 0.128926 
0.045162 0.158720 0.128518 
0.045344 0.158980 0.128132 
0.045424 0.159281 0.127724 
0.045503 0.159581 0.127317 
0.045686 0.159842 0.126931 
0.045764 0.160142 0.126523 
0.045843 0.160444 0.126116 
0.046026 0.160704 0.125730 
0.046105 0.161004 0.125322 
0.046185 0.161305 0.124914 
0.046263 0.161606 0.124506 
0.046343 0.161906 0.124099 
0.046319 0.162248 0.123670 
0.046190 0.162629 0.123219 
0.046166 0.162971 0.122790 
0.046142 0.163312 0.122361 
0.045910 0.163735 0.121888 
0.045782 0.164117 0.121437 
0.045654 0.164499 0.120987 
0.045527 0.164881 0.120536 
0.045399 0.165263 0.120085 
0.045478 0.165563 0.119677 
0.045557 0.165865 0.119270 
0.045636 0.166165 0.118862 
0.045819 0.166425 0.118476 
0.045898 0.166726 0.118069 
0.045977 0.167026 0.117661 
0.045849 0.167409 0.117210 
0.045824 0.167750 0.116781 
0.045386 0.168254 0.116265 
0.045052 0.168717 0.115771 
0.044510 0.169262 0.115234 
0.042933 0.170213 0.114481 
0.042390 0.170757 0.113944 
0.042159 0.171180 0.113471 
0.042031 0.171561 0.113020 
0.041904 0.171943 0.112570 
0.041465 0.172447 0.112054 
0.041544 0.172748 0.111646 
0.041830 0.172967 0.111282 
0.042013 0.173228 0.110896 
0.042195 0.173488 0.110510 
0.042481 0.173707 0.110146 
0.042664 0.173967 0.109760 
0.042847 0.174228 0.109374 
0.042926 0.174528 0.108966 
0.043005 0.174829 0.108558 
0.042877 0.175211 0.108108 
0.042646 0.175634 0.107635 
0.042311 0.176097 0.107141 
0.042183 0.176479 0.106690 
0.041952 0.176901 0.106218 
0.039650 0.178136 0.105313 
0.039108 0.178681 0.104776 
0.039084 0.179022 0.104347 
0.039266 0.179282 0.103961 
0.039449 0.179542 0.103575 
0.039632 0.179802 0.103189 
0.040125 0.179941 0.102868 
0.040722 0.180038 0.102568 
0.041318 0.180136 0.102269 
0.041915 0.180233 0.101969 
0.042615 0.180290 0.101691 
0.043212 0.180388 0.101392 
0.043809 0.180486 0.101092 
0.044405 0.180583 0.100792 
0.044899 0.180722 0.100472 
0.045495 0.180819 0.100172 
0.045988 0.180957 0.099850 
0.046585 0.181055 0.099551 
0.047078 0.181193 0.099230 
0.047572 0.181331 0.098909 
0.048169 0.181429 0.098609 
0.048662 0.181567 0.098288 
0.049051 0.181746 0.097945 
0.049648 0.181844 0.097646 
0.050038 0.182022 0.097303 
0.050531 0.182161 0.096982 
0.050921 0.182340 0.096639 
0.051310 0.182518 0.096296 
0.051803 0.182657 0.095975 
0.052193 0.182835 0.095632 
0.052479 0.183055 0.095268 
0.052765 0.183274 0.094904 
0.053155 0.183453 0.094560 
0.053441 0.183672 0.094196 
0.053727 0.183892 0.093832 
0.054013 0.184112 0.093468 
0.054196 0.184372 0.093082 
0.054482 0.184592 0.092717 
0.054769 0.184810 0.092353 
0.055055 0.185030 0.091988 
0.055341 0.185249 0.091624 
0.055627 0.185469 0.091260 
0.055914 0.185689 0.090896 
0.056096 0.185949 0.090510 
0.056175 0.186250 0.090102 
0.056357 0.186510 0.089716 
0.056333 0.186850 0.089286 
0.055894 0.187354 0.088771 
0.055974 0.187656 0.088364 
0.056053 0.187956 0.087956 
0.056133 0.188257 0.087548 
0.056315 0.188517 0.087162 
0.056394 0.188818 0.086754 
0.056370 0.189159 0.086326 
0.056552 0.189419 0.085940 
0.056528 0.189761 0.085510 
0.056710 0.190021 0.085124 
0.056893 0.190281 0.084738 
0.057180 0.190500 0.084374 
0.057362 0.190760 0.083988 
0.057545 0.191020 0.083602 
0.057728 0.191280 0.083216 
0.058014 0.191500 0.082852 
0.058196 0.191760 0.082466 
0.058171 0.192101 0.082036 
0.058354 0.192362 0.081650 
0.058330 0.192702 0.081221 
0.058410 0.193004 0.080814 
0.058385 0.193345 0.080384 
0.058464 0.193645 0.079977 
0.058336 0.194028 0.079526 
0.058312 0.194369 0.079097 
0.058184 0.194751 0.078646 
0.058056 0.195133 0.078195 
0.057824 0.195556 0.077723 
0.057593 0.195978 0.077250 
0.057051 0.196522 0.076713 
0.056820 0.196945 0.076241 
0.056381 0.197449 0.075725 
0.053355 0.198969 0.074669 
0.053641 0.199188 0.074305 
0.053617 0.199529 0.073876 
0.053903 0.199749 0.073511 
0.053775 0.200131 0.073060 
0.053337 0.200635 0.072545 
0.053209 0.201017 0.072094 
0.052770 0.201520 0.071578 
0.051504 0.202349 0.070890 
0.051273 0.202772 0.070418 
0.050006 0.203601 0.069729 
0.049257 0.204227 0.069148 
0.048270 0.204940 0.068515 
0.047137 0.205703 0.067845 
0.045894 0.206508 0.067151 
0.044651 0.207314 0.066458 
0.044176 0.207825 0.065930 
0.042823 0.208672 0.065213 
0.042677 0.209058 0.064756 
0.036828 0.211623 0.063069 
0.036572 0.212051 0.062589 
0.036754 0.212311 0.062203 
0.036828 0.212614 0.061794 
0.036681 0.212999 0.061337 
0.036754 0.213302 0.060927 
0.036279 0.213813 0.060399 
0.033501 0.215205 0.059375 
-0.082425 0.165046 0.156280 
-0.080261 0.164569 0.156335 
-0.078963 0.164414 0.156197 
-0.077541 0.164213 0.156087 
-0.076244 0.164059 0.155949 
-0.075442 0.164088 0.155701 
-0.074537 0.164081 0.155476 
-0.073771 0.164125 0.155221 
-0.073121 0.164212 0.154940 
-0.072588 0.164343 0.154632 
-0.071822 0.164386 0.154377 
-0.071406 0.164561 0.154043 
-0.070639 0.164604 0.153788 
-0.069990 0.164692 0.153506 
-0.069573 0.164866 0.153173 
-0.068924 0.164953 0.152891 
-0.068274 0.165040 0.152610 
-0.067858 0.165214 0.152277 
-0.067091 0.165258 0.152021 
-0.066675 0.165432 0.151688 
-0.065792 0.165433 0.151458 
-0.065142 0.165520 0.151177 
-0.064259 0.165521 0.150948 
-0.063610 0.165609 0.150666 
-0.062843 0.165653 0.150411 
-0.062077 0.165697 0.150156 
-0.060960 0.165612 0.149979 
-0.060077 0.165612 0.149750 
-0.059194 0.165613 0.149521 
-0.058311 0.165615 0.149292 
-0.051123 0.163283 0.150474 
-0.050473 0.163370 0.150193 
-0.050174 0.163587 0.149833 
-0.049641 0.163718 0.149525 
-0.049108 0.163848 0.149218 
-0.048692 0.164023 0.148885 
-0.048392 0.164239 0.148525 
-0.013907 0.151596 0.155676 
-0.012957 0.151561 0.155455 
-0.011897 0.151486 0.155258 
-0.011495 0.151662 0.154919 
-0.007694 0.150537 0.155312 
-0.005867 0.150167 0.155280 
-0.005246 0.150259 0.154988 
-0.004515 0.150310 0.154720 
-0.003674 0.150318 0.154476 
-0.003053 0.150410 0.154184 
-0.002213 0.150418 0.153939 
-0.001372 0.150427 0.153695 
-0.000860 0.150560 0.153380 
-0.000239 0.150653 0.153088 
0.000382 0.150745 0.152797 
0.001003 0.150837 0.152505 
0.009482 0.147914 0.153900 
0.009768 0.148134 0.153536 
0.012539 0.147376 0.153689 
0.013756 0.147229 0.153518 
0.014870 0.147123 0.153326 
0.015778 0.147099 0.153091 
0.016478 0.147155 0.152813 
0.017488 0.147089 0.152599 
0.019534 0.146617 0.152601 
0.020234 0.146674 0.152323 
0.021038 0.146690 0.152067 
0.021738 0.146746 0.151789 
0.022439 0.146803 0.151511 
0.023138 0.146860 0.151232 
0.023735 0.146957 0.150932 
0.024435 0.147014 0.150654 
0.024928 0.147152 0.150333 
0.025525 0.147249 0.150033 
0.026018 0.147387 0.149712 
0.026615 0.147484 0.149412 
0.027004 0.147663 0.149069 
0.027498 0.147801 0.148747 
0.027888 0.147980 0.148405 
0.028380 0.148118 0.148083 
0.028874 0.148256 0.147762 
0.029264 0.148434 0.147420 
0.029756 0.148573 0.147098 
0.030457 0.148628 0.146820 
0.031157 0.148686 0.146542 
0.031754 0.148783 0.146242 
0.032350 0.148880 0.145942 
0.032844 0.149018 0.145621 
0.033440 0.149115 0.145321 
0.033934 0.149253 0.145000 
0.034426 0.149391 0.144678 
0.034919 0.149529 0.144357 
0.035413 0.149668 0.144036 
0.035802 0.149846 0.143693 
0.036192 0.150025 0.143350 
0.036581 0.150204 0.143007 
0.036971 0.150382 0.142664 
0.037257 0.150602 0.142300 
0.037647 0.150780 0.141957 
0.037830 0.151040 0.141571 
0.038219 0.151219 0.141228 
0.038505 0.151439 0.140864 
0.038688 0.151699 0.140478 
0.039078 0.151877 0.140135 
0.039364 0.152097 0.139770 
0.039650 0.152317 0.139406 
0.039937 0.152535 0.139041 
0.040119 0.152795 0.138655 
0.040405 0.153015 0.138291 
0.040691 0.153235 0.137927 
0.040977 0.153454 0.137562 
0.041264 0.153673 0.137198 
0.041550 0.153893 0.136833 
0.041733 0.154153 0.136447 
0.041915 0.154413 0.136061 
0.042201 0.154633 0.135697 
0.042384 0.154893 0.135311 
0.042567 0.155153 0.134925 
0.042749 0.155413 0.134539 
0.043035 0.155632 0.134174 
0.043218 0.155892 0.133788 
0.043400 0.156152 0.133402 
0.043480 0.156453 0.132995 
0.043663 0.156713 0.132609 
0.043845 0.156974 0.132223 
0.044028 0.157234 0.131837 
0.044107 0.157534 0.131430 
0.044290 0.157794 0.131044 
0.044472 0.158054 0.130658 
0.044552 0.158355 0.130250 
0.044734 0.158615 0.129864 
0.044813 0.158916 0.129456 
0.044892 0.159217 0.129049 
0.044972 0.159518 0.128641 
0.045051 0.159818 0.128234 
0.045026 0.160160 0.127805 
0.045106 0.160461 0.127397 
0.045288 0.160721 0.127011 
0.045471 0.160981 0.126625 
0.045550 0.161281 0.126217 
0.045733 0.161541 0.125831 
0.045812 0.161843 0.125424 
0.045994 0.162103 0.125038 
0.045970 0.162444 0.124609 
0.045946 0.162786 0.124180 
0.045922 0.163127 0.123751 
0.045897 0.163469 0.123322 
0.045976 0.163769 0.122914 
0.045848 0.164152 0.122463 
0.045721 0.164534 0.122013 
0.045593 0.164916 0.121562 
0.045362 0.165339 0.121090 
0.045234 0.165721 0.120640 
0.045105 0.166103 0.120188 
0.045185 0.166404 0.119781 
0.045264 0.166705 0.119374 
0.045447 0.166965 0.118988 
0.045526 0.167265 0.118580 
0.045605 0.167567 0.118173 
0.045581 0.167908 0.117743 
0.045349 0.168331 0.117271 
0.044911 0.168835 0.116756 
0.044473 0.169339 0.116240 
0.044241 0.169762 0.115769 
0.042561 0.170755 0.114995 
0.042329 0.171178 0.114522 
0.041787 0.171723 0.113985 
0.041660 0.172104 0.113534 
0.041532 0.172487 0.113084 
0.041197 0.172951 0.112590 
0.041172 0.173292 0.112161 
0.041458 0.173512 0.111797 
0.041745 0.173731 0.111433 
0.042031 0.173950 0.111068 
0.042214 0.174210 0.110682 
0.042293 0.174511 0.110275 
0.042579 0.174730 0.109910 
0.042554 0.175072 0.109481 
0.042531 0.175414 0.109052 
0.042402 0.175796 0.108601 
0.042171 0.176218 0.108129 
0.042043 0.176601 0.107678 
0.041812 0.177024 0.107206 
0.041684 0.177406 0.106755 
0.039693 0.178521 0.105917 
0.038737 0.179228 0.105293 
0.038713 0.179570 0.104865 
0.038792 0.179871 0.104457 
0.038975 0.180131 0.104071 
0.039157 0.180391 0.103685 
0.039547 0.180569 0.103342 
0.040040 0.180708 0.103021 
0.040637 0.180805 0.102721 
0.041337 0.180862 0.102443 
0.041934 0.180959 0.102143 
0.042634 0.181016 0.101865 
0.043230 0.181113 0.101565 
0.043827 0.181210 0.101265 
0.044527 0.181267 0.100987 
0.045021 0.181405 0.100666 
0.045617 0.181502 0.100366 
0.046214 0.181599 0.100066 
0.046707 0.181738 0.099745 
0.047303 0.181835 0.099445 
0.047900 0.181932 0.099145 
0.048393 0.182070 0.098824 
0.048887 0.182208 0.098503 
0.049276 0.182387 0.098160 
0.049769 0.182525 0.097839 
0.050263 0.182663 0.097517 
0.050652 0.182841 0.097174 
0.051145 0.182980 0.096853 
0.051535 0.183158 0.096510 
0.051925 0.183337 0.096167 
0.052315 0.183516 0.095824 
0.052601 0.183735 0.095460 
0.052887 0.183954 0.095095 
0.053173 0.184174 0.094731 
0.053355 0.184434 0.094345 
0.053642 0.184653 0.093981 
0.053825 0.184913 0.093595 
0.054111 0.185133 0.093230 
0.054293 0.185393 0.092844 
0.054579 0.185612 0.092480 
0.054865 0.185832 0.092115 
0.055152 0.186051 0.091751 
0.055335 0.186311 0.091365 
0.055620 0.186530 0.091000 
0.055803 0.186790 0.090614 
0.055883 0.187092 0.090207 
0.055755 0.187474 0.089757 
0.055626 0.187856 0.089305 
0.055809 0.188116 0.088919 
0.055889 0.188417 0.088512 
0.056071 0.188677 0.088126 
0.056151 0.188978 0.087719 
0.056229 0.189278 0.087311 
0.056205 0.189620 0.086882 
0.056180 0.189961 0.086453 
0.056260 0.190263 0.086046 
0.056236 0.190603 0.085616 
0.056314 0.190904 0.085208 
0.056394 0.191206 0.084801 
0.056680 0.191425 0.084436 
0.056966 0.191644 0.084072 
0.057252 0.191864 0.083708 
0.057435 0.192124 0.083322 
0.057618 0.192384 0.082936 
0.057800 0.192644 0.082550 
0.057983 0.192904 0.082164 
0.058062 0.193204 0.081756 
0.058141 0.193505 0.081348 
0.058117 0.193847 0.080920 
0.058092 0.194189 0.080491 
0.058068 0.194530 0.080061 
0.057940 0.194912 0.079611 
0.057916 0.195253 0.079182 
0.057788 0.195636 0.078731 
0.057557 0.196058 0.078259 
0.057429 0.196441 0.077808 
0.056783 0.197026 0.077250 
0.056656 0.197409 0.076799 
0.056114 0.197954 0.076262 
0.055779 0.198418 0.075769 
0.052649 0.199979 0.074692 
0.051901 0.200606 0.074113 
0.051773 0.200988 0.073662 
0.051438 0.201452 0.073168 
0.051310 0.201834 0.072718 
0.050768 0.202379 0.072181 
0.050640 0.202761 0.071730 
0.050305 0.203225 0.071236 
0.049764 0.203770 0.070699 
0.049222 0.204315 0.070163 
0.048887 0.204778 0.069669 
0.048095 0.205413 0.069074 
0.047072 0.206135 0.068429 
0.045829 0.206941 0.067736 
0.044915 0.207621 0.067114 
0.043124 0.208637 0.066303 
0.042649 0.209149 0.065776 
0.042503 0.209535 0.065319 
0.035887 0.212398 0.063470 
0.035960 0.212700 0.063061 
0.036253 0.212918 0.062698 
0.036435 0.213178 0.062312 
0.036179 0.213606 0.061832 
0.036252 0.213909 0.061422 
0.033365 0.215344 0.060376 
0.032999 0.215814 0.059872 
-0.080640 0.165490 0.156452 
-0.079219 0.165288 0.156342 
-0.076682 0.164672 0.156479 
-0.075756 0.164655 0.156258 
-0.074364 0.164466 0.156142 
-0.073480 0.164466 0.155912 
-0.072597 0.164467 0.155683 
-0.071831 0.164511 0.155427 
-0.071182 0.164598 0.155146 
-0.070649 0.164728 0.154838 
-0.069766 0.164729 0.154609 
-0.069350 0.164902 0.154275 
-0.068583 0.164946 0.154019 
-0.068167 0.165119 0.153685 
-0.067518 0.165207 0.153404 
-0.067101 0.165381 0.153070 
-0.066335 0.165425 0.152815 
-0.065802 0.165555 0.152507 
-0.065153 0.165642 0.152225 
-0.064620 0.165772 0.151917 
-0.063854 0.165816 0.151662 
-0.063321 0.165946 0.151354 
-0.062438 0.165947 0.151125 
-0.061905 0.166078 0.150818 
-0.061022 0.166078 0.150588 
-0.060255 0.166122 0.150333 
-0.059256 0.166079 0.150129 
-0.058489 0.166123 0.149874 
-0.057256 0.165994 0.149723 
-0.050420 0.163789 0.150824 
-0.049887 0.163919 0.150516 
-0.049471 0.164093 0.150183 
-0.048821 0.164180 0.149901 
-0.048289 0.164310 0.149593 
-0.047989 0.164527 0.149233 
-0.013860 0.151996 0.156292 
-0.013677 0.152256 0.155906 
-0.011192 0.151633 0.156014 
-0.009365 0.151262 0.155981 
-0.006661 0.150555 0.156137 
-0.005053 0.150269 0.156057 
-0.004542 0.150403 0.155742 
-0.003701 0.150411 0.155497 
-0.003190 0.150544 0.155181 
-0.002678 0.150679 0.154866 
-0.001838 0.150687 0.154622 
-0.001107 0.150736 0.154353 
-0.000486 0.150829 0.154062 
-0.000084 0.151004 0.153723 
0.000647 0.151054 0.153455 
0.001049 0.151230 0.153116 
0.001560 0.151365 0.152801 
0.001524 0.151708 0.152367 
0.010098 0.148742 0.153778 
0.012558 0.148105 0.153865 
0.013879 0.147917 0.153716 
0.015096 0.147769 0.153545 
0.016004 0.147744 0.153309 
0.016807 0.147760 0.153053 
0.017921 0.147652 0.152860 
0.019346 0.147424 0.152732 
0.020253 0.147398 0.152496 
0.021056 0.147414 0.152239 
0.021757 0.147470 0.151961 
0.022457 0.147527 0.151683 
0.023157 0.147583 0.151404 
0.023857 0.147639 0.151126 
0.024453 0.147736 0.150825 
0.024947 0.147873 0.150504 
0.025543 0.147971 0.150204 
0.026037 0.148109 0.149883 
0.026530 0.148246 0.149562 
0.027022 0.148385 0.149240 
0.027516 0.148522 0.148918 
0.027906 0.148701 0.148576 
0.028398 0.148839 0.148254 
0.028892 0.148976 0.147933 
0.029385 0.149113 0.147611 
0.029878 0.149251 0.147289 
0.030475 0.149349 0.146989 
0.031175 0.149405 0.146711 
0.031771 0.149502 0.146411 
0.032265 0.149640 0.146090 
0.032861 0.149737 0.145789 
0.033458 0.149834 0.145490 
0.033847 0.150013 0.145147 
0.034340 0.150150 0.144825 
0.034937 0.150247 0.144525 
0.035430 0.150385 0.144203 
0.035820 0.150564 0.143861 
0.036209 0.150742 0.143518 
0.036599 0.150921 0.143175 
0.036988 0.151099 0.142831 
0.037274 0.151319 0.142467 
0.037561 0.151538 0.142103 
0.037950 0.151717 0.141760 
0.038236 0.151936 0.141395 
0.038523 0.152155 0.141031 
0.038809 0.152375 0.140666 
0.039095 0.152594 0.140302 
0.039278 0.152854 0.139916 
0.039564 0.153073 0.139551 
0.039850 0.153293 0.139187 
0.040136 0.153512 0.138822 
0.040422 0.153731 0.138458 
0.040709 0.153951 0.138094 
0.040995 0.154170 0.137729 
0.041178 0.154430 0.137343 
0.041464 0.154650 0.136979 
0.041646 0.154910 0.136593 
0.041829 0.155170 0.136207 
0.042115 0.155389 0.135842 
0.042297 0.155650 0.135456 
0.042584 0.155868 0.135092 
0.042767 0.156128 0.134706 
0.042949 0.156388 0.134320 
0.043235 0.156608 0.133955 
0.043315 0.156908 0.133548 
0.043497 0.157169 0.133162 
0.043680 0.157429 0.132776 
0.043863 0.157689 0.132390 
0.043941 0.157990 0.131982 
0.044124 0.158250 0.131596 
0.044307 0.158511 0.131210 
0.044386 0.158811 0.130803 
0.044569 0.159071 0.130417 
0.044545 0.159413 0.129988 
0.044623 0.159714 0.129580 
0.044703 0.160014 0.129172 
0.044782 0.160315 0.128765 
0.044757 0.160657 0.128336 
0.044733 0.160998 0.127907 
0.044812 0.161300 0.127500 
0.044995 0.161560 0.127114 
0.045074 0.161861 0.126706 
0.045257 0.162121 0.126320 
0.045439 0.162381 0.125934 
0.045519 0.162681 0.125527 
0.045598 0.162982 0.125120 
0.045677 0.163283 0.124712 
0.045653 0.163625 0.124283 
0.045732 0.163925 0.123875 
0.045811 0.164226 0.123467 
0.045787 0.164568 0.123039 
0.045659 0.164950 0.122588 
0.045531 0.165333 0.122138 
0.045299 0.165756 0.121666 
0.045171 0.166139 0.121215 
0.044940 0.166562 0.120743 
0.044916 0.166903 0.120314 
0.044892 0.167245 0.119885 
0.044971 0.167546 0.119478 
0.045050 0.167847 0.119071 
0.045026 0.168188 0.118641 
0.044898 0.168570 0.118191 
0.044667 0.168994 0.117719 
0.044228 0.169499 0.117204 
0.044100 0.169881 0.116753 
0.043766 0.170345 0.116260 
0.042604 0.171135 0.115595 
0.042476 0.171517 0.115144 
0.041416 0.172266 0.114500 
0.041392 0.172608 0.114071 
0.041368 0.172950 0.113642 
0.040826 0.173495 0.113105 
0.040698 0.173878 0.112655 
0.040777 0.174179 0.112248 
0.041063 0.174398 0.111883 
0.041349 0.174617 0.111518 
0.041532 0.174878 0.111132 
0.041819 0.175097 0.110768 
0.042001 0.175357 0.110382 
0.041976 0.175698 0.109953 
0.041952 0.176040 0.109524 
0.041928 0.176382 0.109095 
0.041696 0.176805 0.108623 
0.041672 0.177147 0.108194 
0.041544 0.177529 0.107743 
0.040071 0.178441 0.107014 
0.038494 0.179394 0.106262 
0.038574 0.179695 0.105854 
0.038549 0.180037 0.105425 
0.038525 0.180379 0.104996 
0.038604 0.180679 0.104589 
0.038787 0.180939 0.104203 
0.039073 0.181159 0.103839 
0.039463 0.181337 0.103495 
0.040059 0.181435 0.103196 
0.040552 0.181572 0.102874 
0.041253 0.181629 0.102596 
0.042056 0.181644 0.102339 
0.042653 0.181741 0.102039 
0.043353 0.181797 0.101760 
0.043949 0.181894 0.101460 
0.044546 0.181991 0.101160 
0.045246 0.182048 0.100882 
0.045843 0.182145 0.100582 
0.046439 0.182242 0.100282 
0.046933 0.182380 0.099961 
0.047529 0.182476 0.099660 
0.048022 0.182614 0.099339 
0.048619 0.182712 0.099039 
0.049009 0.182890 0.098696 
0.049502 0.183028 0.098375 
0.049994 0.183166 0.098053 
0.050488 0.183304 0.097732 
0.050878 0.183482 0.097389 
0.051267 0.183660 0.097045 
0.051657 0.183839 0.096702 
0.052046 0.184018 0.096360 
0.052333 0.184237 0.095995 
0.052619 0.184456 0.095631 
0.052905 0.184675 0.095266 
0.052984 0.184976 0.094859 
0.053270 0.185195 0.094494 
0.053453 0.185455 0.094108 
0.053635 0.185716 0.093722 
0.053921 0.185935 0.093357 
0.054208 0.186155 0.092993 
0.054391 0.186415 0.092607 
0.054677 0.186634 0.092242 
0.054963 0.186853 0.091878 
0.055145 0.187113 0.091492 
0.055328 0.187374 0.091106 
0.055407 0.187674 0.090698 
0.055382 0.188016 0.090270 
0.055359 0.188358 0.089841 
0.055541 0.188618 0.089455 
0.055621 0.188918 0.089047 
0.055803 0.189178 0.088661 
0.055882 0.189480 0.088254 
0.055961 0.189780 0.087846 
0.055937 0.190122 0.087418 
0.056016 0.190423 0.087010 
0.055992 0.190765 0.086581 
0.055864 0.191147 0.086130 
0.055839 0.191489 0.085701 
0.055815 0.191830 0.085272 
0.055791 0.192172 0.084843 
0.055973 0.192432 0.084457 
0.056467 0.192570 0.084136 
0.056753 0.192790 0.083772 
0.056935 0.193050 0.083386 
0.057118 0.193310 0.083000 
0.057301 0.193570 0.082614 
0.057483 0.193830 0.082228 
0.057563 0.194130 0.081820 
0.057642 0.194431 0.081412 
0.057721 0.194732 0.081005 
0.057593 0.195115 0.080555 
0.057569 0.195457 0.080126 
0.057442 0.195839 0.079675 
0.057417 0.196180 0.079246 
0.057185 0.196603 0.078774 
0.057057 0.196986 0.078323 
0.056412 0.197572 0.077766 
0.056181 0.197995 0.077293 
0.055743 0.198499 0.076778 
0.055305 0.199005 0.076264 
0.052279 0.200528 0.075211 
0.051634 0.201115 0.074653 
0.051402 0.201537 0.074181 
0.051171 0.201961 0.073709 
0.050836 0.202425 0.073216 
0.050501 0.202888 0.072722 
0.050270 0.203312 0.072250 
0.049935 0.203776 0.071757 
0.049600 0.204239 0.071262 
0.048955 0.204826 0.070705 
0.048724 0.205249 0.070233 
0.048139 0.205803 0.069682 
0.047335 0.206442 0.069084 
0.045435 0.207501 0.068251 
0.044960 0.208013 0.067723 
0.042292 0.209367 0.066725 
0.042365 0.209668 0.066315 
0.042000 0.210139 0.065812 
0.034837 0.213215 0.063848 
0.035130 0.213434 0.063486 
0.035312 0.213694 0.063100 
0.035276 0.214037 0.062666 
0.034910 0.214508 0.062163 
0.032681 0.215693 0.061259 
0.032096 0.216248 0.060708 
-0.076566 0.165408 0.156706 
-0.074897 0.165113 0.156649 
-0.073891 0.165067 0.156447 
-0.072541 0.164894 0.156321 
-0.071541 0.164851 0.156118 
-0.070775 0.164895 0.155862 
-0.070126 0.164982 0.155580 
-0.069359 0.165026 0.155325 
-0.068710 0.165112 0.155043 
-0.067827 0.165113 0.154813 
-0.067527 0.165329 0.154453 
-0.066761 0.165372 0.154197 
-0.066345 0.165547 0.153864 
-0.065696 0.165633 0.153582 
-0.065163 0.165763 0.153274 
-0.064630 0.165894 0.152966 
-0.063864 0.165937 0.152710 
-0.063331 0.166068 0.152403 
-0.062915 0.166241 0.152069 
-0.062032 0.166241 0.151839 
-0.061616 0.166415 0.151505 
-0.060733 0.166414 0.151275 
-0.060084 0.166502 0.150994 
-0.059201 0.166501 0.150763 
-0.058435 0.166545 0.150508 
-0.057318 0.166459 0.150330 
-0.056669 0.166546 0.150048 
-0.049717 0.164294 0.151173 
-0.049184 0.164424 0.150865 
-0.048535 0.164511 0.150584 
-0.047885 0.164598 0.150302 
-0.047703 0.164858 0.149916 
-0.014251 0.152563 0.156813 
-0.010999 0.151645 0.157085 
-0.009611 0.151442 0.156958 
-0.007894 0.151113 0.156901 
-0.005738 0.150615 0.156938 
-0.004569 0.150496 0.156763 
-0.003838 0.150546 0.156495 
-0.003217 0.150638 0.156203 
-0.002706 0.150771 0.155887 
-0.002304 0.150947 0.155548 
-0.001464 0.150954 0.155303 
-0.000623 0.150962 0.155059 
-0.000112 0.151096 0.154743 
0.000290 0.151272 0.154404 
0.000911 0.151363 0.154112 
0.001423 0.151498 0.153797 
0.001825 0.151674 0.153458 
0.002117 0.151892 0.153095 
0.001971 0.152278 0.152639 
0.010739 0.149227 0.154084 
0.011542 0.149242 0.153827 
0.013588 0.148767 0.153827 
0.015219 0.148456 0.153742 
0.016126 0.148430 0.153506 
0.017033 0.148405 0.153270 
0.018147 0.148297 0.153077 
0.019261 0.148190 0.152884 
0.020168 0.148163 0.152648 
0.021075 0.148138 0.152412 
0.021672 0.148235 0.152113 
0.022372 0.148291 0.151833 
0.023176 0.148306 0.151577 
0.023772 0.148403 0.151276 
0.024369 0.148499 0.150976 
0.024965 0.148596 0.150676 
0.025458 0.148734 0.150354 
0.026055 0.148830 0.150054 
0.026444 0.149009 0.149711 
0.026937 0.149147 0.149389 
0.027430 0.149284 0.149067 
0.027924 0.149421 0.148746 
0.028416 0.149560 0.148424 
0.028806 0.149738 0.148081 
0.029403 0.149834 0.147781 
0.029896 0.149972 0.147460 
0.030493 0.150069 0.147159 
0.030986 0.150207 0.146838 
0.031686 0.150262 0.146559 
0.032282 0.150359 0.146258 
0.032775 0.150497 0.145937 
0.033269 0.150634 0.145616 
0.033865 0.150731 0.145315 
0.034358 0.150869 0.144994 
0.034851 0.151006 0.144672 
0.035344 0.151144 0.144350 
0.035734 0.151322 0.144007 
0.036227 0.151460 0.143686 
0.036617 0.151638 0.143343 
0.037006 0.151817 0.143000 
0.037292 0.152036 0.142635 
