ply
format ascii 1.0
comment created by MATLAB ply_write
element vertex 1543
property float x
property float y
property float z
end_header
-0.155320 -0.128520 -0.103150 
-0.154824 -0.128766 -0.103237 
-0.154328 -0.129013 -0.103325 
-0.154085 -0.129101 -0.103822 
-0.143354 -0.135833 -0.087292 
-0.142796 -0.136120 -0.087277 
-0.142363 -0.136326 -0.087467 
-0.142057 -0.136454 -0.087863 
-0.200067 -0.110244 -0.052604 
-0.199950 -0.110250 -0.053307 
-0.200023 -0.110136 -0.054318 
-0.199906 -0.110144 -0.055021 
-0.199726 -0.110190 -0.055621 
-0.199483 -0.110277 -0.056119 
-0.199114 -0.110444 -0.056412 
-0.198744 -0.110611 -0.056704 
-0.198375 -0.110778 -0.056997 
-0.197942 -0.110985 -0.057187 
-0.197510 -0.111193 -0.057377 
-0.197141 -0.111360 -0.057670 
-0.196708 -0.111566 -0.057860 
-0.196338 -0.111733 -0.058153 
-0.195843 -0.111981 -0.058240 
-0.195410 -0.112187 -0.058430 
-0.194978 -0.112395 -0.058620 
-0.194545 -0.112602 -0.058811 
-0.194050 -0.112849 -0.058898 
-0.193617 -0.113056 -0.059088 
-0.193121 -0.113303 -0.059176 
-0.192689 -0.113510 -0.059366 
-0.192257 -0.113718 -0.059556 
-0.191761 -0.113965 -0.059643 
-0.191202 -0.114252 -0.059628 
-0.190769 -0.114459 -0.059819 
-0.190211 -0.114746 -0.059804 
-0.189715 -0.114993 -0.059891 
-0.189219 -0.115241 -0.059979 
-0.188724 -0.115488 -0.060066 
-0.188102 -0.115815 -0.059949 
-0.187543 -0.116103 -0.059934 
-0.187047 -0.116350 -0.060021 
-0.186425 -0.116677 -0.059903 
-0.185866 -0.116964 -0.059888 
-0.185307 -0.117252 -0.059873 
-0.184749 -0.117539 -0.059858 
-0.184127 -0.117866 -0.059741 
-0.183568 -0.118154 -0.059726 
-0.182819 -0.118561 -0.059403 
-0.182072 -0.118969 -0.059080 
-0.181323 -0.119377 -0.058757 
-0.180322 -0.119945 -0.058024 
-0.179322 -0.120513 -0.057291 
-0.178257 -0.121120 -0.056456 
-0.177004 -0.121849 -0.055313 
-0.157894 -0.129323 -0.085867 
-0.158030 -0.129169 -0.086980 
-0.158102 -0.129055 -0.087991 
-0.158238 -0.128902 -0.089104 
-0.158248 -0.128828 -0.090012 
-0.158257 -0.128754 -0.090920 
-0.158266 -0.128681 -0.091829 
-0.158276 -0.128607 -0.092737 
-0.158349 -0.128494 -0.093747 
-0.158295 -0.128461 -0.094553 
-0.158305 -0.128387 -0.095461 
-0.158251 -0.128353 -0.096267 
-0.158197 -0.128320 -0.097072 
-0.158206 -0.128246 -0.097980 
-0.158090 -0.128253 -0.098683 
-0.158036 -0.128219 -0.099489 
-0.157919 -0.128226 -0.100192 
-0.157803 -0.128233 -0.100895 
-0.157749 -0.128199 -0.101700 
-0.157569 -0.128246 -0.102301 
-0.157262 -0.128373 -0.102696 
-0.156893 -0.128540 -0.102988 
-0.156524 -0.128707 -0.103281 
-0.156028 -0.128954 -0.103369 
-0.155469 -0.129242 -0.103354 
-0.154974 -0.129488 -0.103441 
-0.154541 -0.129696 -0.103631 
-0.154361 -0.129743 -0.104232 
-0.143699 -0.136445 -0.087805 
-0.143204 -0.136692 -0.087893 
-0.142645 -0.136980 -0.087878 
-0.142339 -0.137106 -0.088273 
-0.141843 -0.137354 -0.088361 
-0.200726 -0.110651 -0.053630 
-0.200672 -0.110618 -0.054435 
-0.200681 -0.110543 -0.055343 
-0.200501 -0.110590 -0.055943 
-0.200257 -0.110676 -0.056441 
-0.199888 -0.110843 -0.056734 
-0.199519 -0.111010 -0.057027 
-0.199149 -0.111177 -0.057319 
-0.198780 -0.111344 -0.057612 
-0.198348 -0.111552 -0.057802 
-0.197978 -0.111719 -0.058095 
-0.197546 -0.111926 -0.058285 
-0.197113 -0.112133 -0.058475 
-0.196617 -0.112380 -0.058563 
-0.196185 -0.112588 -0.058753 
-0.195753 -0.112795 -0.058943 
-0.195257 -0.113042 -0.059030 
-0.194824 -0.113249 -0.059220 
-0.194329 -0.113497 -0.059308 
-0.193833 -0.113744 -0.059396 
-0.193401 -0.113951 -0.059586 
-0.192905 -0.114199 -0.059673 
-0.192410 -0.114446 -0.059761 
-0.191914 -0.114694 -0.059848 
-0.191418 -0.114940 -0.059936 
-0.190923 -0.115188 -0.060023 
-0.190427 -0.115435 -0.060111 
-0.189869 -0.115723 -0.060096 
-0.189310 -0.116010 -0.060081 
-0.188814 -0.116257 -0.060169 
-0.188193 -0.116586 -0.060051 
-0.187697 -0.116833 -0.060138 
-0.187138 -0.117120 -0.060124 
-0.186517 -0.117448 -0.060006 
-0.185958 -0.117735 -0.059991 
-0.185336 -0.118063 -0.059873 
-0.184840 -0.118310 -0.059961 
-0.184155 -0.118678 -0.059741 
-0.183533 -0.119005 -0.059623 
-0.182785 -0.119414 -0.059301 
-0.181974 -0.119861 -0.058875 
-0.180911 -0.120471 -0.058040 
-0.179847 -0.121080 -0.057204 
-0.178910 -0.121608 -0.056574 
-0.177720 -0.122297 -0.055533 
-0.158057 -0.129978 -0.086980 
-0.158192 -0.129824 -0.088093 
-0.158264 -0.129709 -0.089104 
-0.158337 -0.129595 -0.090114 
-0.158409 -0.129481 -0.091125 
-0.158356 -0.129447 -0.091931 
-0.158554 -0.129253 -0.093146 
-0.158500 -0.129219 -0.093952 
-0.158509 -0.129145 -0.094860 
-0.158519 -0.129071 -0.095768 
-0.158465 -0.129037 -0.096573 
-0.158474 -0.128963 -0.097482 
-0.158483 -0.128890 -0.098390 
-0.158430 -0.128856 -0.099195 
-0.158376 -0.128822 -0.100001 
-0.158322 -0.128788 -0.100806 
-0.158142 -0.128835 -0.101407 
-0.158025 -0.128841 -0.102109 
-0.157845 -0.128887 -0.102710 
-0.157538 -0.129014 -0.103105 
-0.157169 -0.129181 -0.103398 
-0.156799 -0.129348 -0.103690 
-0.156241 -0.129636 -0.103675 
-0.155682 -0.129923 -0.103660 
-0.155123 -0.130210 -0.103645 
-0.154817 -0.130338 -0.104041 
-0.144856 -0.136609 -0.088744 
-0.144171 -0.136977 -0.088524 
-0.143549 -0.137305 -0.088406 
-0.142990 -0.137592 -0.088391 
-0.142621 -0.137759 -0.088684 
-0.142315 -0.137886 -0.089079 
-0.201500 -0.111052 -0.053952 
-0.201383 -0.111057 -0.054655 
-0.201329 -0.111024 -0.055460 
-0.201212 -0.111030 -0.056163 
-0.201032 -0.111076 -0.056763 
-0.200725 -0.111203 -0.057159 
-0.200293 -0.111410 -0.057349 
-0.199987 -0.111537 -0.057744 
-0.199554 -0.111744 -0.057934 
-0.199122 -0.111951 -0.058124 
-0.198753 -0.112118 -0.058417 
-0.198320 -0.112326 -0.058607 
-0.197824 -0.112573 -0.058695 
-0.197392 -0.112780 -0.058885 
-0.196960 -0.112987 -0.059075 
-0.196464 -0.113235 -0.059163 
-0.195968 -0.113482 -0.059250 
-0.195536 -0.113689 -0.059440 
-0.195041 -0.113937 -0.059528 
-0.194545 -0.114185 -0.059615 
-0.194049 -0.114432 -0.059703 
-0.193554 -0.114679 -0.059791 
-0.193058 -0.114927 -0.059878 
-0.192563 -0.115175 -0.059966 
-0.192067 -0.115422 -0.060053 
-0.191572 -0.115669 -0.060141 
-0.191076 -0.115917 -0.060228 
-0.190518 -0.116204 -0.060213 
-0.189959 -0.116492 -0.060198 
-0.189463 -0.116739 -0.060286 
-0.188905 -0.117027 -0.060271 
-0.188283 -0.117355 -0.060153 
-0.187788 -0.117603 -0.060241 
-0.187166 -0.117930 -0.060123 
-0.186608 -0.118218 -0.060108 
-0.186049 -0.118506 -0.060093 
-0.185427 -0.118834 -0.059976 
-0.184805 -0.119162 -0.059858 
-0.184121 -0.119530 -0.059638 
-0.183499 -0.119858 -0.059521 
-0.182499 -0.120428 -0.058788 
-0.181436 -0.121037 -0.057952 
-0.180688 -0.121445 -0.057630 
-0.179499 -0.122135 -0.056589 
-0.178373 -0.122785 -0.055651 
-0.157832 -0.130948 -0.086570 
-0.158345 -0.130552 -0.088298 
-0.158228 -0.130557 -0.089001 
-0.158363 -0.130403 -0.090114 
-0.158436 -0.130288 -0.091125 
-0.158571 -0.130133 -0.092238 
-0.158706 -0.129978 -0.093351 
-0.158589 -0.129985 -0.094054 
-0.158787 -0.129789 -0.095269 
-0.158796 -0.129715 -0.096178 
-0.158805 -0.129641 -0.097086 
-0.158688 -0.129646 -0.097788 
-0.158760 -0.129532 -0.098799 
-0.158706 -0.129498 -0.099604 
-0.158652 -0.129464 -0.100410 
-0.158534 -0.129469 -0.101113 
-0.158481 -0.129436 -0.101918 
-0.158364 -0.129442 -0.102621 
-0.158120 -0.129528 -0.103119 
-0.157751 -0.129695 -0.103412 
-0.157381 -0.129862 -0.103704 
-0.156949 -0.130070 -0.103894 
-0.156391 -0.130358 -0.103879 
-0.155769 -0.130685 -0.103762 
-0.155336 -0.130893 -0.103952 
-0.155093 -0.130979 -0.104450 
-0.145200 -0.137220 -0.089257 
-0.144579 -0.137549 -0.089139 
-0.143957 -0.137876 -0.089022 
-0.143398 -0.138165 -0.089007 
-0.142902 -0.138411 -0.089094 
-0.142597 -0.138539 -0.089489 
-0.202212 -0.111492 -0.054172 
-0.202095 -0.111497 -0.054875 
-0.202040 -0.111463 -0.055680 
-0.201923 -0.111469 -0.056383 
-0.201743 -0.111515 -0.056983 
-0.201436 -0.111642 -0.057378 
-0.201130 -0.111768 -0.057774 
-0.200698 -0.111976 -0.057964 
-0.200328 -0.112143 -0.058256 
-0.199896 -0.112350 -0.058447 
-0.199526 -0.112517 -0.058739 
-0.199094 -0.112724 -0.058929 
-0.198599 -0.112972 -0.059017 
-0.198166 -0.113180 -0.059207 
-0.197733 -0.113386 -0.059397 
-0.197238 -0.113634 -0.059485 
-0.196743 -0.113881 -0.059572 
-0.196247 -0.114129 -0.059660 
-0.195752 -0.114377 -0.059748 
-0.195257 -0.114625 -0.059835 
-0.194761 -0.114872 -0.059923 
-0.194265 -0.115119 -0.060010 
-0.193707 -0.115407 -0.059995 
-0.193275 -0.115615 -0.060185 
-0.192716 -0.115903 -0.060170 
-0.192221 -0.116151 -0.060258 
-0.191725 -0.116398 -0.060346 
-0.191230 -0.116645 -0.060433 
-0.190671 -0.116933 -0.060418 
-0.190113 -0.117221 -0.060403 
-0.189554 -0.117509 -0.060388 
-0.188996 -0.117798 -0.060373 
-0.188437 -0.118085 -0.060358 
-0.187879 -0.118373 -0.060343 
-0.187257 -0.118701 -0.060226 
-0.186699 -0.118989 -0.060211 
-0.186077 -0.119317 -0.060093 
-0.185393 -0.119686 -0.059873 
-0.184834 -0.119974 -0.059858 
-0.184087 -0.120382 -0.059536 
-0.183213 -0.120872 -0.059008 
-0.182087 -0.121522 -0.058070 
-0.181213 -0.122012 -0.057543 
-0.180151 -0.122622 -0.056707 
-0.178710 -0.123474 -0.055257 
-0.158435 -0.131319 -0.088400 
-0.158444 -0.131245 -0.089308 
-0.158453 -0.131170 -0.090216 
-0.158525 -0.131055 -0.091227 
-0.158596 -0.130939 -0.092237 
-0.158794 -0.130744 -0.093453 
-0.158740 -0.130709 -0.094258 
-0.158938 -0.130514 -0.095474 
-0.159010 -0.130399 -0.096484 
-0.159019 -0.130324 -0.097392 
-0.159027 -0.130249 -0.098300 
-0.158973 -0.130215 -0.099106 
-0.158982 -0.130140 -0.100014 
-0.158928 -0.130106 -0.100819 
-0.158874 -0.130071 -0.101624 
-0.158819 -0.130036 -0.102430 
-0.158639 -0.130083 -0.103030 
-0.158333 -0.130210 -0.103426 
-0.157964 -0.130377 -0.103718 
-0.157594 -0.130544 -0.104011 
-0.157099 -0.130792 -0.104098 
-0.156540 -0.131079 -0.104083 
-0.155919 -0.131407 -0.103966 
-0.155486 -0.131615 -0.104156 
-0.155243 -0.131701 -0.104654 
-0.145544 -0.137832 -0.089769 
-0.144923 -0.138160 -0.089652 
-0.144365 -0.138448 -0.089637 
-0.143743 -0.138776 -0.089519 
-0.143247 -0.139024 -0.089607 
-0.142941 -0.139150 -0.090002 
-0.202868 -0.111896 -0.055197 
-0.202688 -0.111942 -0.055797 
-0.202697 -0.111867 -0.056705 
-0.202516 -0.111913 -0.057305 
-0.202210 -0.112039 -0.057700 
-0.201903 -0.112166 -0.058096 
-0.201471 -0.112373 -0.058286 
-0.201102 -0.112540 -0.058578 
-0.200732 -0.112708 -0.058871 
-0.200300 -0.112915 -0.059061 
-0.199805 -0.113163 -0.059149 
-0.199372 -0.113370 -0.059339 
-0.198940 -0.113577 -0.059529 
-0.198444 -0.113825 -0.059617 
-0.198012 -0.114032 -0.059807 
-0.197517 -0.114280 -0.059895 
-0.197021 -0.114528 -0.059982 
-0.196526 -0.114776 -0.060070 
-0.196031 -0.115023 -0.060157 
-0.195472 -0.115311 -0.060142 
-0.194977 -0.115559 -0.060230 
-0.194418 -0.115847 -0.060215 
-0.193923 -0.116095 -0.060303 
-0.193428 -0.116343 -0.060390 
-0.192869 -0.116631 -0.060375 
-0.192374 -0.116879 -0.060463 
-0.191878 -0.117126 -0.060550 
-0.191320 -0.117414 -0.060536 
-0.190762 -0.117702 -0.060521 
-0.190203 -0.117991 -0.060506 
-0.189645 -0.118279 -0.060491 
-0.189086 -0.118567 -0.060476 
-0.188591 -0.118814 -0.060563 
-0.187970 -0.119143 -0.060446 
-0.187411 -0.119431 -0.060431 
-0.186727 -0.119800 -0.060211 
-0.186043 -0.120169 -0.059991 
-0.185421 -0.120497 -0.059873 
-0.184737 -0.120866 -0.059653 
-0.183864 -0.121357 -0.059126 
-0.182613 -0.122089 -0.057983 
-0.181928 -0.122458 -0.057763 
-0.180992 -0.122988 -0.057133 
-0.158533 -0.132012 -0.089410 
-0.158731 -0.131816 -0.090626 
-0.158614 -0.131822 -0.091329 
-0.158811 -0.131625 -0.092544 
-0.158946 -0.131470 -0.093657 
-0.158955 -0.131394 -0.094565 
-0.159026 -0.131279 -0.095576 
-0.159224 -0.131083 -0.096791 
-0.159232 -0.131007 -0.097699 
-0.159178 -0.130973 -0.098505 
-0.159313 -0.130817 -0.099618 
-0.159195 -0.130822 -0.100320 
-0.159141 -0.130788 -0.101126 
-0.159212 -0.130672 -0.102136 
-0.159095 -0.130678 -0.102839 
-0.158915 -0.130724 -0.103439 
-0.158545 -0.130891 -0.103732 
-0.158239 -0.131017 -0.104127 
-0.157743 -0.131265 -0.104215 
-0.157248 -0.131513 -0.104302 
-0.156627 -0.131841 -0.104185 
-0.156005 -0.132170 -0.104068 
-0.155762 -0.132256 -0.104565 
-0.146573 -0.138073 -0.090502 
-0.145951 -0.138402 -0.090385 
-0.145330 -0.138730 -0.090267 
-0.144709 -0.139060 -0.090150 
-0.144025 -0.139428 -0.089930 
-0.143529 -0.139676 -0.090018 
-0.143223 -0.139803 -0.090413 
-0.142790 -0.140010 -0.090603 
-0.203516 -0.112376 -0.055314 
-0.203399 -0.112381 -0.056017 
-0.203344 -0.112345 -0.056822 
-0.203227 -0.112351 -0.057525 
-0.202983 -0.112437 -0.058023 
-0.202614 -0.112604 -0.058315 
-0.202308 -0.112731 -0.058710 
-0.201875 -0.112938 -0.058901 
-0.201506 -0.113105 -0.059193 
-0.201010 -0.113353 -0.059281 
-0.200578 -0.113560 -0.059471 
-0.200146 -0.113768 -0.059661 
-0.199713 -0.113975 -0.059851 
-0.199218 -0.114224 -0.059939 
-0.198723 -0.114472 -0.060027 
-0.198291 -0.114679 -0.060217 
-0.197795 -0.114927 -0.060304 
-0.197237 -0.115215 -0.060289 
-0.196741 -0.115462 -0.060377 
-0.196247 -0.115711 -0.060465 
-0.195688 -0.115999 -0.060450 
-0.195193 -0.116247 -0.060537 
-0.194634 -0.116535 -0.060522 
-0.194139 -0.116783 -0.060610 
-0.193581 -0.117072 -0.060595 
-0.193086 -0.117319 -0.060683 
-0.192527 -0.117607 -0.060668 
-0.191969 -0.117896 -0.060653 
-0.191411 -0.118184 -0.060638 
-0.190916 -0.118432 -0.060726 
-0.190357 -0.118720 -0.060711 
-0.189736 -0.119049 -0.060593 
-0.189241 -0.119297 -0.060681 
-0.188620 -0.119626 -0.060563 
-0.187998 -0.119954 -0.060446 
-0.187377 -0.120283 -0.060328 
-0.186756 -0.120612 -0.060211 
-0.186009 -0.121021 -0.059888 
-0.185324 -0.121390 -0.059668 
-0.184388 -0.121921 -0.059038 
-0.183326 -0.122533 -0.058203 
-0.182579 -0.122943 -0.057881 
-0.181454 -0.123594 -0.056943 
-0.158687 -0.132740 -0.089615 
-0.158884 -0.132543 -0.090831 
-0.158766 -0.132549 -0.091533 
-0.158900 -0.132392 -0.092646 
-0.159035 -0.132236 -0.093759 
-0.159169 -0.132079 -0.094872 
-0.159240 -0.131963 -0.095883 
-0.159438 -0.131767 -0.097098 
-0.159446 -0.131691 -0.098006 
-0.159455 -0.131616 -0.098914 
-0.159526 -0.131499 -0.099924 
-0.159471 -0.131464 -0.100730 
-0.159542 -0.131348 -0.101740 
-0.159488 -0.131313 -0.102545 
-0.159370 -0.131318 -0.103248 
-0.159127 -0.131404 -0.103746 
-0.158820 -0.131531 -0.104141 
-0.158388 -0.131738 -0.104331 
-0.157893 -0.131986 -0.104419 
-0.157335 -0.132275 -0.104404 
-0.156713 -0.132603 -0.104287 
-0.156155 -0.132891 -0.104272 
-0.155912 -0.132978 -0.104769 
-0.146854 -0.138724 -0.090913 
-0.146295 -0.139012 -0.090898 
-0.145674 -0.139342 -0.090780 
-0.145116 -0.139630 -0.090765 
-0.144369 -0.140039 -0.090443 
-0.143873 -0.140287 -0.090530 
-0.143504 -0.140454 -0.090823 
-0.143260 -0.140540 -0.091321 
-0.204172 -0.112779 -0.056339 
-0.203929 -0.112865 -0.056836 
-0.203874 -0.112830 -0.057642 
-0.203693 -0.112875 -0.058242 
-0.203387 -0.113001 -0.058637 
-0.203018 -0.113168 -0.058930 
-0.202648 -0.113335 -0.059223 
-0.202279 -0.113502 -0.059515 
-0.201846 -0.113710 -0.059705 
-0.201414 -0.113917 -0.059896 
-0.200919 -0.114166 -0.059983 
-0.200487 -0.114373 -0.060173 
-0.199991 -0.114621 -0.060261 
-0.199496 -0.114869 -0.060349 
-0.199001 -0.115117 -0.060436 
-0.198506 -0.115365 -0.060524 
-0.197948 -0.115654 -0.060509 
-0.197515 -0.115861 -0.060699 
-0.196957 -0.116149 -0.060684 
-0.196399 -0.116438 -0.060669 
-0.195841 -0.116726 -0.060654 
-0.195345 -0.116974 -0.060742 
-0.194850 -0.117223 -0.060830 
-0.194292 -0.117511 -0.060815 
-0.193797 -0.117759 -0.060902 
-0.193239 -0.118047 -0.060887 
-0.192681 -0.118336 -0.060873 
-0.192122 -0.118624 -0.060858 
-0.191564 -0.118913 -0.060843 
-0.191069 -0.119161 -0.060931 
-0.190511 -0.119449 -0.060916 
-0.189890 -0.119779 -0.060798 
-0.189394 -0.120026 -0.060886 
-0.188711 -0.120396 -0.060666 
-0.188027 -0.120766 -0.060446 
-0.187468 -0.121054 -0.060431 
-0.186721 -0.121464 -0.060109 
-0.185786 -0.121996 -0.059479 
-0.184913 -0.122487 -0.058951 
-0.183977 -0.123018 -0.058321 
-0.183104 -0.123509 -0.057793 
-0.181791 -0.124284 -0.056548 
-0.158847 -0.133392 -0.090728 
-0.159044 -0.133194 -0.091943 
-0.159052 -0.133118 -0.092851 
-0.159061 -0.133042 -0.093759 
-0.159321 -0.132805 -0.095077 
-0.159454 -0.132647 -0.096190 
-0.159589 -0.132490 -0.097302 
-0.159723 -0.132334 -0.098415 
-0.159731 -0.132258 -0.099323 
-0.159802 -0.132141 -0.100334 
-0.159810 -0.132065 -0.101241 
-0.159818 -0.131989 -0.102149 
-0.159763 -0.131954 -0.102955 
-0.159646 -0.131959 -0.103657 
-0.159276 -0.132126 -0.103950 
-0.158970 -0.132252 -0.104345 
-0.158538 -0.132460 -0.104535 
-0.157979 -0.132748 -0.104520 
-0.157358 -0.133078 -0.104403 
-0.156674 -0.133446 -0.104183 
-0.156305 -0.133613 -0.104476 
-0.156061 -0.133700 -0.104974 
-0.147260 -0.139293 -0.091528 
-0.146576 -0.139663 -0.091308 
-0.146018 -0.139951 -0.091293 
-0.145523 -0.140200 -0.091381 
-0.144650 -0.140691 -0.090853 
-0.144155 -0.140938 -0.090941 
-0.143848 -0.141065 -0.091336 
-0.143542 -0.141192 -0.091731 
-0.204576 -0.113343 -0.056953 
-0.204458 -0.113348 -0.057656 
-0.204340 -0.113352 -0.058359 
-0.204160 -0.113398 -0.058959 
-0.203791 -0.113565 -0.059252 
-0.203484 -0.113691 -0.059647 
-0.203052 -0.113899 -0.059837 
-0.202619 -0.114107 -0.060027 
-0.202187 -0.114314 -0.060217 
-0.201692 -0.114563 -0.060305 
-0.201197 -0.114810 -0.060393 
-0.200764 -0.115018 -0.060583 
-0.200206 -0.115307 -0.060568 
-0.199774 -0.115514 -0.060758 
-0.199216 -0.115803 -0.060743 
-0.198784 -0.116010 -0.060934 
-0.198226 -0.116299 -0.060919 
-0.197730 -0.116547 -0.061006 
-0.197173 -0.116836 -0.060991 
-0.196615 -0.117125 -0.060977 
-0.196056 -0.117413 -0.060962 
-0.195561 -0.117662 -0.061049 
-0.195003 -0.117951 -0.061035 
-0.194508 -0.118198 -0.061122 
-0.193950 -0.118487 -0.061107 
-0.193392 -0.118775 -0.061092 
-0.192834 -0.119064 -0.061077 
-0.192276 -0.119353 -0.061063 
-0.191718 -0.119642 -0.061048 
-0.191160 -0.119930 -0.061033 
-0.190602 -0.120219 -0.061018 
-0.190044 -0.120508 -0.061003 
-0.189360 -0.120878 -0.060783 
-0.188676 -0.121248 -0.060563 
-0.188055 -0.121577 -0.060446 
-0.187371 -0.121947 -0.060226 
-0.186499 -0.122438 -0.059699 
-0.185626 -0.122930 -0.059171 
-0.184565 -0.123543 -0.058336 
-0.183693 -0.124034 -0.057809 
-0.182694 -0.124607 -0.057076 
-0.159134 -0.133962 -0.092045 
-0.159268 -0.133804 -0.093158 
-0.159213 -0.133769 -0.093963 
-0.159472 -0.133529 -0.095281 
-0.159606 -0.133372 -0.096394 
-0.159614 -0.133296 -0.097302 
-0.159873 -0.133057 -0.098620 
-0.160007 -0.132900 -0.099732 
-0.160015 -0.132823 -0.100640 
-0.160086 -0.132706 -0.101651 
-0.160093 -0.132630 -0.102558 
-0.160039 -0.132594 -0.103364 
-0.159795 -0.132680 -0.103861 
-0.159489 -0.132807 -0.104257 
-0.159119 -0.132974 -0.104549 
-0.158624 -0.133222 -0.104637 
-0.158003 -0.133551 -0.104519 
-0.157382 -0.133880 -0.104402 
-0.156761 -0.134210 -0.104285 
-0.156517 -0.134295 -0.104782 
-0.148224 -0.139574 -0.092158 
-0.147604 -0.139903 -0.092041 
-0.146920 -0.140273 -0.091821 
-0.146424 -0.140520 -0.091908 
-0.145929 -0.140769 -0.091996 
-0.144994 -0.141301 -0.091366 
-0.144561 -0.141508 -0.091556 
-0.144129 -0.141716 -0.091746 
-0.143823 -0.141842 -0.092141 
-0.205349 -0.113740 -0.057275 
-0.205105 -0.113825 -0.057773 
-0.204987 -0.113830 -0.058476 
-0.204869 -0.113835 -0.059178 
-0.204563 -0.113961 -0.059574 
-0.204256 -0.114087 -0.059969 
-0.203824 -0.114295 -0.060159 
-0.203455 -0.114462 -0.060452 
-0.202960 -0.114710 -0.060539 
-0.202527 -0.114917 -0.060730 
-0.202032 -0.115166 -0.060817 
-0.201537 -0.115415 -0.060905 
-0.201105 -0.115622 -0.061095 
-0.200547 -0.115911 -0.061080 
-0.200052 -0.116160 -0.061168 
-0.199494 -0.116448 -0.061153 
-0.198999 -0.116696 -0.061241 
-0.198441 -0.116985 -0.061226 
-0.197946 -0.117234 -0.061313 
-0.197388 -0.117523 -0.061299 
-0.196830 -0.117811 -0.061284 
-0.196335 -0.118060 -0.061371 
-0.195777 -0.118349 -0.061357 
-0.195219 -0.118637 -0.061342 
-0.194661 -0.118926 -0.061327 
-0.194103 -0.119215 -0.061312 
-0.193545 -0.119504 -0.061297 
-0.192987 -0.119793 -0.061282 
-0.192492 -0.120041 -0.061370 
-0.191872 -0.120371 -0.061253 
-0.191251 -0.120701 -0.061135 
-0.190693 -0.120990 -0.061121 
-0.190009 -0.121359 -0.060901 
-0.189451 -0.121648 -0.060886 
-0.188705 -0.122059 -0.060563 
-0.188021 -0.122430 -0.060344 
-0.187086 -0.122962 -0.059714 
-0.186151 -0.123495 -0.059084 
-0.185216 -0.124027 -0.058454 
-0.184343 -0.124519 -0.057926 
-0.183345 -0.125092 -0.057194 
-0.159357 -0.134571 -0.093260 
-0.159427 -0.134454 -0.094270 
-0.159560 -0.134295 -0.095383 
-0.159631 -0.134178 -0.096393 
-0.159890 -0.133939 -0.097711 
-0.160086 -0.133740 -0.098926 
-0.160283 -0.133541 -0.100142 
-0.160353 -0.133424 -0.101152 
-0.160361 -0.133347 -0.102060 
-0.160369 -0.133271 -0.102967 
-0.160251 -0.133275 -0.103670 
-0.160007 -0.133361 -0.104168 
-0.159701 -0.133487 -0.104563 
-0.159269 -0.133695 -0.104753 
-0.158648 -0.134024 -0.104636 
-0.158027 -0.134354 -0.104518 
-0.157469 -0.134642 -0.104504 
-0.156974 -0.134891 -0.104591 
-0.156605 -0.135058 -0.104884 
-0.148755 -0.140060 -0.092978 
-0.147946 -0.140512 -0.092553 
-0.147326 -0.140841 -0.092436 
-0.146830 -0.141089 -0.092523 
-0.146210 -0.141419 -0.092406 
-0.145463 -0.141830 -0.092084 
-0.144905 -0.142119 -0.092069 
-0.144347 -0.142407 -0.092054 
-0.144041 -0.142534 -0.092449 
-0.205689 -0.114343 -0.057787 
-0.205571 -0.114348 -0.058490 
-0.205516 -0.114312 -0.059295 
-0.205272 -0.114397 -0.059793 
-0.205028 -0.114482 -0.060291 
-0.204596 -0.114691 -0.060481 
-0.204227 -0.114858 -0.060774 
-0.203795 -0.115065 -0.060964 
-0.203300 -0.115314 -0.061051 
-0.202867 -0.115521 -0.061241 
-0.202372 -0.115770 -0.061329 
-0.201877 -0.116018 -0.061417 
-0.201320 -0.116307 -0.061402 
-0.200825 -0.116556 -0.061490 
-0.200267 -0.116845 -0.061475 
-0.199772 -0.117093 -0.061563 
-0.199214 -0.117382 -0.061548 
-0.198656 -0.117671 -0.061533 
-0.198161 -0.117920 -0.061621 
-0.197603 -0.118209 -0.061606 
-0.197045 -0.118498 -0.061591 
-0.196487 -0.118787 -0.061576 
-0.195929 -0.119076 -0.061561 
-0.195372 -0.119366 -0.061547 
-0.194814 -0.119654 -0.061532 
-0.194256 -0.119943 -0.061517 
-0.193698 -0.120232 -0.061502 
-0.193140 -0.120521 -0.061487 
-0.192583 -0.120810 -0.061472 
-0.191962 -0.121141 -0.061355 
-0.191404 -0.121430 -0.061340 
-0.190721 -0.121800 -0.061120 
-0.190100 -0.122130 -0.061003 
-0.189354 -0.122541 -0.060681 
-0.188607 -0.122952 -0.060358 
-0.187673 -0.123486 -0.059729 
-0.186738 -0.124019 -0.059099 
-0.185804 -0.124553 -0.058469 
-0.184869 -0.125085 -0.057839 
-0.159446 -0.135338 -0.093362 
-0.159516 -0.135219 -0.094372 
-0.159587 -0.135102 -0.095383 
-0.159908 -0.134822 -0.096803 
-0.160104 -0.134622 -0.098018 
-0.160300 -0.134423 -0.099233 
-0.160496 -0.134223 -0.100448 
-0.160566 -0.134105 -0.101459 
-0.160699 -0.133947 -0.102571 
-0.160644 -0.133910 -0.103376 
-0.160463 -0.133955 -0.103977 
-0.160157 -0.134082 -0.104372 
-0.159850 -0.134208 -0.104767 
-0.159355 -0.134456 -0.104855 
-0.158671 -0.134827 -0.104635 
-0.158051 -0.135157 -0.104518 
-0.157493 -0.135446 -0.104503 
-0.157061 -0.135653 -0.104693 
-0.150158 -0.140053 -0.094325 
-0.149161 -0.140627 -0.093593 
-0.148289 -0.141120 -0.093066 
-0.147731 -0.141408 -0.093051 
-0.147174 -0.141698 -0.093036 
-0.146553 -0.142028 -0.092919 
-0.145932 -0.142358 -0.092802 
-0.145249 -0.142728 -0.092582 
-0.144754 -0.142976 -0.092669 
-0.144447 -0.143103 -0.093065 
-0.206336 -0.114821 -0.057904 
-0.206218 -0.114825 -0.058607 
-0.206100 -0.114829 -0.059310 
-0.205919 -0.114874 -0.059910 
-0.205738 -0.114919 -0.060510 
-0.205368 -0.115086 -0.060803 
-0.204999 -0.115253 -0.061095 
-0.204567 -0.115460 -0.061285 
-0.204134 -0.115668 -0.061476 
-0.203702 -0.115876 -0.061666 
-0.203144 -0.116165 -0.061651 
-0.202713 -0.116373 -0.061841 
-0.202155 -0.116662 -0.061826 
-0.201597 -0.116952 -0.061812 
-0.201102 -0.117200 -0.061899 
-0.200544 -0.117489 -0.061885 
-0.200049 -0.117738 -0.061972 
-0.199429 -0.118068 -0.061855 
-0.198934 -0.118317 -0.061943 
-0.198376 -0.118606 -0.061928 
-0.197818 -0.118895 -0.061913 
-0.197261 -0.119185 -0.061898 
-0.196703 -0.119474 -0.061883 
-0.196083 -0.119804 -0.061766 
-0.195525 -0.120093 -0.061751 
-0.194967 -0.120383 -0.061736 
-0.194409 -0.120671 -0.061722 
-0.193851 -0.120960 -0.061707 
-0.193294 -0.121250 -0.061692 
-0.192673 -0.121581 -0.061575 
-0.192053 -0.121911 -0.061458 
-0.191432 -0.122240 -0.061340 
-0.190812 -0.122570 -0.061223 
-0.190066 -0.122982 -0.060901 
-0.189257 -0.123434 -0.060476 
-0.188322 -0.123968 -0.059846 
-0.187325 -0.124543 -0.059114 
-0.186328 -0.125118 -0.058382 
-0.185456 -0.125610 -0.057854 
-0.159794 -0.135864 -0.094782 
-0.159801 -0.135786 -0.095690 
-0.159934 -0.135628 -0.096802 
-0.160318 -0.135305 -0.098325 
-0.160513 -0.135106 -0.099540 
-0.160709 -0.134906 -0.100755 
-0.160842 -0.134746 -0.101868 
-0.160912 -0.134628 -0.102878 
-0.160856 -0.134591 -0.103683 
-0.160612 -0.134676 -0.104181 
-0.160306 -0.134803 -0.104576 
-0.159936 -0.134970 -0.104869 
-0.159316 -0.135300 -0.104751 
-0.158696 -0.135630 -0.104634 
-0.158075 -0.135961 -0.104517 
-0.157580 -0.136208 -0.104604 
-0.157210 -0.136375 -0.104897 
-0.150752 -0.140497 -0.095248 
-0.149566 -0.141194 -0.094208 
-0.148695 -0.141687 -0.093681 
-0.148074 -0.142017 -0.093564 
-0.147454 -0.142347 -0.093446 
-0.146896 -0.142636 -0.093431 
-0.146275 -0.142967 -0.093314 
-0.145592 -0.143337 -0.093094 
-0.145160 -0.143545 -0.093285 
-0.144791 -0.143712 -0.093577 
-0.206864 -0.115302 -0.058724 
-0.206683 -0.115346 -0.059324 
-0.206565 -0.115350 -0.060026 
-0.206384 -0.115395 -0.060627 
-0.206140 -0.115480 -0.061124 
-0.205771 -0.115647 -0.061417 
-0.205401 -0.115814 -0.061710 
-0.204969 -0.116022 -0.061900 
-0.204537 -0.116230 -0.062090 
-0.204042 -0.116478 -0.062178 
-0.203484 -0.116767 -0.062163 
-0.202989 -0.117016 -0.062251 
-0.202432 -0.117306 -0.062236 
-0.201874 -0.117596 -0.062221 
-0.201316 -0.117885 -0.062206 
-0.200821 -0.118133 -0.062294 
-0.200201 -0.118463 -0.062177 
-0.199644 -0.118753 -0.062162 
-0.199149 -0.119002 -0.062250 
-0.198528 -0.119332 -0.062132 
-0.197971 -0.119622 -0.062118 
-0.197350 -0.119952 -0.062000 
-0.196793 -0.120242 -0.061986 
-0.196298 -0.120491 -0.062073 
-0.195740 -0.120779 -0.062059 
-0.195120 -0.121111 -0.061941 
-0.194562 -0.121400 -0.061926 
-0.193942 -0.121730 -0.061809 
-0.193384 -0.122020 -0.061794 
-0.192701 -0.122391 -0.061575 
-0.192144 -0.122680 -0.061560 
-0.191461 -0.123051 -0.061340 
-0.190715 -0.123463 -0.061018 
-0.189906 -0.123916 -0.060593 
-0.188909 -0.124491 -0.059861 
-0.187850 -0.125107 -0.059026 
-0.187041 -0.125560 -0.058602 
-0.186044 -0.126135 -0.057869 
-0.160071 -0.136508 -0.095191 
-0.160015 -0.136471 -0.095997 
-0.160211 -0.136271 -0.097212 
-0.160594 -0.135947 -0.098734 
-0.160789 -0.135747 -0.099949 
-0.160984 -0.135546 -0.101164 
-0.161117 -0.135387 -0.102277 
-0.161187 -0.135268 -0.103287 
-0.161068 -0.135272 -0.103990 
-0.160762 -0.135398 -0.104385 
-0.160393 -0.135565 -0.104677 
-0.159960 -0.135773 -0.104868 
-0.159340 -0.136103 -0.104750 
-0.158657 -0.136474 -0.104531 
-0.158099 -0.136764 -0.104516 
-0.157604 -0.137013 -0.104604 
-0.151713 -0.140773 -0.095877 
-0.151282 -0.140981 -0.096068 
-0.150034 -0.141719 -0.094925 
-0.149163 -0.142213 -0.094398 
-0.148417 -0.142625 -0.094076 
-0.147733 -0.142996 -0.093856 
-0.147301 -0.143204 -0.094046 
-0.146493 -0.143657 -0.093622 
-0.145935 -0.143946 -0.093607 
-0.145440 -0.144194 -0.093695 
-0.145134 -0.144321 -0.094090 
-0.207267 -0.115863 -0.059338 
-0.207086 -0.115908 -0.059938 
-0.206967 -0.115911 -0.060641 
-0.206786 -0.115955 -0.061241 
-0.206542 -0.116041 -0.061739 
-0.206235 -0.116166 -0.062134 
-0.205803 -0.116375 -0.062324 
-0.205308 -0.116623 -0.062412 
-0.204813 -0.116872 -0.062499 
-0.204381 -0.117080 -0.062690 
-0.203761 -0.117411 -0.062572 
-0.203266 -0.117660 -0.062660 
-0.202709 -0.117950 -0.062645 
-0.202151 -0.118239 -0.062631 
-0.201594 -0.118528 -0.062616 
-0.201099 -0.118778 -0.062704 
-0.200416 -0.119149 -0.062484 
-0.199858 -0.119438 -0.062469 
-0.199301 -0.119728 -0.062454 
-0.198743 -0.120018 -0.062440 
-0.198123 -0.120349 -0.062322 
-0.197503 -0.120679 -0.062205 
-0.197008 -0.120928 -0.062293 
-0.196451 -0.121218 -0.062278 
-0.195831 -0.121549 -0.062161 
-0.195273 -0.121838 -0.062146 
-0.194715 -0.122128 -0.062131 
-0.194032 -0.122499 -0.061912 
-0.193475 -0.122789 -0.061897 
-0.192792 -0.123160 -0.061677 
-0.192109 -0.123532 -0.061457 
-0.191426 -0.123903 -0.061238 
-0.190618 -0.124357 -0.060813 
-0.189496 -0.125015 -0.059876 
-0.188563 -0.125550 -0.059246 
-0.187629 -0.126085 -0.058617 
-0.186507 -0.126743 -0.057680 
-0.160222 -0.137233 -0.095396 
-0.160229 -0.137156 -0.096304 
-0.160362 -0.136995 -0.097416 
-0.160682 -0.136712 -0.098836 
-0.161065 -0.136389 -0.100358 
-0.161197 -0.136229 -0.101471 
-0.161392 -0.136027 -0.102686 
-0.161399 -0.135948 -0.103593 
-0.161218 -0.135993 -0.104194 
-0.160911 -0.136119 -0.104589 
-0.160479 -0.136327 -0.104779 
-0.159984 -0.136576 -0.104867 
-0.159301 -0.136948 -0.104647 
-0.158681 -0.137278 -0.104530 
-0.158124 -0.137568 -0.104515 
-0.157441 -0.137939 -0.104295 
-0.152118 -0.141337 -0.096492 
-0.151247 -0.141832 -0.095965 
-0.150501 -0.142243 -0.095643 
-0.149567 -0.142779 -0.095013 
-0.148696 -0.143273 -0.094486 
-0.148076 -0.143603 -0.094369 
-0.147644 -0.143812 -0.094559 
-0.146898 -0.144224 -0.094237 
-0.146278 -0.144555 -0.094120 
-0.145846 -0.144763 -0.094310 
-0.145414 -0.144970 -0.094500 
-0.207669 -0.116424 -0.059952 
-0.207550 -0.116427 -0.060655 
-0.207432 -0.116431 -0.061358 
-0.207250 -0.116475 -0.061958 
-0.207006 -0.116560 -0.062455 
-0.206637 -0.116727 -0.062748 
-0.206205 -0.116935 -0.062938 
-0.205710 -0.117184 -0.063026 
-0.205215 -0.117433 -0.063114 
-0.204658 -0.117723 -0.063099 
-0.204100 -0.118013 -0.063084 
-0.203606 -0.118261 -0.063172 
-0.202986 -0.118593 -0.063055 
-0.202428 -0.118882 -0.063040 
-0.201871 -0.119172 -0.063025 
-0.201251 -0.119503 -0.062908 
-0.200693 -0.119793 -0.062893 
-0.200073 -0.120124 -0.062776 
-0.199453 -0.120454 -0.062659 
-0.198896 -0.120745 -0.062644 
-0.198276 -0.121075 -0.062527 
-0.197656 -0.121406 -0.062410 
-0.197098 -0.121696 -0.062395 
-0.196541 -0.121986 -0.062380 
-0.195921 -0.122317 -0.062263 
-0.195363 -0.122607 -0.062248 
-0.194681 -0.122979 -0.062029 
-0.194123 -0.123269 -0.062014 
-0.193440 -0.123641 -0.061794 
-0.192820 -0.123972 -0.061677 
-0.192138 -0.124343 -0.061457 
-0.191204 -0.124879 -0.060828 
-0.190145 -0.125497 -0.059993 
-0.189212 -0.126032 -0.059364 
-0.188216 -0.126609 -0.058632 
-0.187032 -0.127308 -0.057592 
-0.160506 -0.137799 -0.096713 
-0.160450 -0.137760 -0.097518 
-0.160582 -0.137600 -0.098630 
-0.161278 -0.137070 -0.100665 
-0.161473 -0.136869 -0.101880 
-0.161667 -0.136667 -0.103095 
-0.161549 -0.136670 -0.103798 
-0.161305 -0.136756 -0.104295 
-0.160998 -0.136882 -0.104690 
-0.160503 -0.137130 -0.104778 
-0.159883 -0.137461 -0.104661 
-0.159326 -0.137751 -0.104646 
-0.158706 -0.138082 -0.104529 
-0.158086 -0.138413 -0.104412 
-0.157215 -0.138907 -0.103885 
-0.152396 -0.141983 -0.096902 
-0.151588 -0.142437 -0.096477 
-0.150654 -0.142972 -0.095848 
-0.149846 -0.143426 -0.095423 
-0.149101 -0.143839 -0.095101 
-0.148418 -0.144211 -0.094881 
-0.147798 -0.144542 -0.094764 
-0.147178 -0.144873 -0.094647 
-0.146558 -0.145204 -0.094530 
-0.146251 -0.145329 -0.094925 
-0.208070 -0.116985 -0.060567 
-0.207952 -0.116988 -0.061269 
-0.207833 -0.116991 -0.061972 
-0.207651 -0.117035 -0.062572 
-0.207345 -0.117161 -0.062967 
-0.206975 -0.117328 -0.063260 
-0.206543 -0.117536 -0.063450 
-0.206111 -0.117744 -0.063640 
-0.205554 -0.118034 -0.063625 
-0.204997 -0.118324 -0.063611 
-0.204502 -0.118573 -0.063698 
-0.203882 -0.118904 -0.063581 
-0.203325 -0.119194 -0.063567 
-0.202705 -0.119525 -0.063449 
-0.202085 -0.119856 -0.063332 
-0.201465 -0.120187 -0.063215 
-0.200908 -0.120478 -0.063200 
-0.200225 -0.120850 -0.062981 
-0.199605 -0.121182 -0.062864 
-0.198986 -0.121513 -0.062746 
-0.198428 -0.121802 -0.062732 
-0.197808 -0.122134 -0.062615 
-0.197188 -0.122465 -0.062497 
-0.196631 -0.122754 -0.062483 
-0.196074 -0.123045 -0.062468 
-0.195391 -0.123418 -0.062248 
-0.194771 -0.123749 -0.062131 
-0.194151 -0.124080 -0.062014 
-0.193531 -0.124411 -0.061897 
-0.192786 -0.124823 -0.061575 
-0.191853 -0.125360 -0.060945 
-0.190920 -0.125896 -0.060316 
-0.189736 -0.126597 -0.059276 
-0.189054 -0.126969 -0.059057 
-0.187745 -0.127752 -0.057812 
-0.160595 -0.138564 -0.096815 
-0.160726 -0.138403 -0.097927 
-0.160545 -0.138447 -0.098527 
-0.160927 -0.138122 -0.100050 
-0.161622 -0.137591 -0.102084 
-0.161880 -0.137348 -0.103402 
-0.161698 -0.137392 -0.104002 
-0.161391 -0.137518 -0.104397 
-0.161022 -0.137685 -0.104689 
-0.160527 -0.137934 -0.104777 
-0.159970 -0.138224 -0.104762 
-0.159350 -0.138555 -0.104645 
-0.158605 -0.138968 -0.104323 
-0.157922 -0.139340 -0.104104 
-0.153983 -0.141846 -0.098556 
-0.152611 -0.142670 -0.097209 
-0.151991 -0.143001 -0.097092 
-0.150996 -0.143578 -0.096360 
-0.150125 -0.144074 -0.095833 
-0.149380 -0.144487 -0.095511 
-0.148635 -0.144900 -0.095189 
-0.148078 -0.145191 -0.095174 
-0.147332 -0.145603 -0.094852 
-0.146963 -0.145770 -0.095145 
-0.208466 -0.117625 -0.060274 
-0.208472 -0.117545 -0.061181 
-0.208290 -0.117589 -0.061781 
-0.208234 -0.117550 -0.062586 
-0.207990 -0.117635 -0.063084 
-0.207746 -0.117720 -0.063581 
-0.207376 -0.117887 -0.063874 
-0.206945 -0.118096 -0.064064 
-0.206512 -0.118303 -0.064254 
-0.205893 -0.118635 -0.064137 
-0.205335 -0.118925 -0.064122 
-0.204778 -0.119215 -0.064108 
-0.204158 -0.119546 -0.063991 
-0.203539 -0.119878 -0.063873 
-0.202981 -0.120168 -0.063859 
-0.202362 -0.120500 -0.063742 
-0.201679 -0.120873 -0.063522 
-0.201122 -0.121162 -0.063507 
-0.200377 -0.121576 -0.063185 
-0.199758 -0.121908 -0.063068 
-0.199138 -0.122239 -0.062951 
-0.198518 -0.122570 -0.062834 
-0.197898 -0.122902 -0.062717 
-0.197341 -0.123192 -0.062702 
-0.196784 -0.123483 -0.062687 
-0.196164 -0.123814 -0.062570 
-0.195482 -0.124187 -0.062351 
-0.194862 -0.124518 -0.062233 
-0.194179 -0.124890 -0.062014 
-0.193434 -0.125304 -0.061692 
-0.192564 -0.125800 -0.061165 
-0.191569 -0.126377 -0.060433 
-0.190449 -0.127038 -0.059496 
-0.189578 -0.127533 -0.058969 
-0.188207 -0.128358 -0.057623 
-0.160684 -0.139331 -0.096917 
-0.160815 -0.139169 -0.098029 
-0.161009 -0.138966 -0.099244 
-0.161078 -0.138845 -0.100254 
-0.161460 -0.138519 -0.101776 
-0.162029 -0.138070 -0.103606 
-0.161785 -0.138155 -0.104103 
-0.161478 -0.138280 -0.104498 
-0.161109 -0.138447 -0.104791 
-0.160552 -0.138738 -0.104776 
-0.159932 -0.139069 -0.104659 
-0.159312 -0.139400 -0.104542 
-0.158504 -0.139855 -0.104118 
-0.157697 -0.140310 -0.103693 
-0.154448 -0.142367 -0.099273 
-0.152952 -0.143274 -0.097721 
-0.152144 -0.143729 -0.097297 
-0.151274 -0.144225 -0.096770 
-0.150404 -0.144721 -0.096243 
-0.149659 -0.145134 -0.095921 
-0.148914 -0.145548 -0.095599 
-0.148232 -0.145920 -0.095379 
-0.147675 -0.146211 -0.095364 
-0.147117 -0.146501 -0.095350 
-0.208930 -0.118143 -0.060990 
-0.208811 -0.118146 -0.061693 
-0.208692 -0.118148 -0.062395 
-0.208572 -0.118150 -0.063097 
-0.208391 -0.118194 -0.063698 
-0.208084 -0.118320 -0.064093 
-0.207715 -0.118487 -0.064385 
-0.207283 -0.118695 -0.064576 
-0.206788 -0.118944 -0.064663 
-0.206231 -0.119235 -0.064649 
-0.205674 -0.119525 -0.064634 
-0.205117 -0.119816 -0.064619 
-0.204435 -0.120189 -0.064400 
-0.203878 -0.120479 -0.064385 
-0.203196 -0.120852 -0.064166 
-0.202576 -0.121184 -0.064048 
-0.201831 -0.121598 -0.063727 
-0.201212 -0.121930 -0.063609 
-0.200529 -0.122302 -0.063390 
-0.199910 -0.122634 -0.063273 
-0.199290 -0.122966 -0.063156 
-0.198670 -0.123297 -0.063039 
-0.198051 -0.123629 -0.062921 
-0.197431 -0.123961 -0.062804 
-0.196811 -0.124292 -0.062687 
-0.196192 -0.124624 -0.062570 
-0.195572 -0.124956 -0.062453 
-0.194890 -0.125328 -0.062233 
-0.194083 -0.125784 -0.061809 
-0.193213 -0.126280 -0.061282 
-0.192280 -0.126817 -0.060653 
-0.191035 -0.127561 -0.059511 
-0.190290 -0.127975 -0.059189 
-0.160966 -0.139894 -0.098234 
-0.161160 -0.139690 -0.099448 
-0.161291 -0.139527 -0.100561 
-0.161360 -0.139407 -0.101570 
-0.162116 -0.138832 -0.103707 
-0.161872 -0.138917 -0.104205 
-0.161565 -0.139043 -0.104600 
-0.161133 -0.139251 -0.104790 
-0.160514 -0.139583 -0.104673 
-0.159894 -0.139915 -0.104556 
-0.159212 -0.140287 -0.104336 
-0.158404 -0.140743 -0.103912 
-0.157159 -0.141486 -0.102770 
-0.154538 -0.143135 -0.099375 
-0.153230 -0.143920 -0.098131 
-0.152422 -0.144374 -0.097706 
-0.151490 -0.144912 -0.097077 
-0.150745 -0.145326 -0.096755 
-0.149875 -0.145822 -0.096228 
-0.149131 -0.146237 -0.095906 
-0.148449 -0.146610 -0.095687 
-0.148016 -0.146817 -0.095877 
-0.209143 -0.118826 -0.061297 
-0.209087 -0.118787 -0.062102 
-0.209030 -0.118748 -0.062907 
-0.208848 -0.118791 -0.063507 
-0.208729 -0.118794 -0.064209 
-0.208422 -0.118919 -0.064604 
-0.208052 -0.119086 -0.064897 
-0.207621 -0.119295 -0.065087 
-0.207126 -0.119544 -0.065175 
-0.206569 -0.119835 -0.065160 
-0.206012 -0.120125 -0.065146 
-0.205393 -0.120457 -0.065029 
-0.204711 -0.120831 -0.064809 
-0.204091 -0.121163 -0.064692 
-0.203409 -0.121536 -0.064473 
-0.202727 -0.121909 -0.064253 
-0.201983 -0.122323 -0.063931 
-0.201363 -0.122655 -0.063814 
-0.200681 -0.123028 -0.063594 
-0.200062 -0.123360 -0.063477 
-0.199442 -0.123692 -0.063360 
-0.198760 -0.124066 -0.063141 
-0.198203 -0.124356 -0.063126 
-0.197521 -0.124729 -0.062907 
-0.196902 -0.125061 -0.062790 
-0.196220 -0.125435 -0.062570 
-0.195538 -0.125808 -0.062351 
-0.194793 -0.126222 -0.062029 
-0.193861 -0.126760 -0.061399 
-0.192929 -0.127298 -0.060770 
-0.191622 -0.128084 -0.059526 
-0.191002 -0.128416 -0.059409 
-0.161305 -0.140494 -0.098745 
-0.161248 -0.140455 -0.099550 
-0.161441 -0.140251 -0.100765 
-0.161447 -0.140171 -0.101672 
-0.162203 -0.139595 -0.103809 
-0.161896 -0.139721 -0.104204 
-0.161527 -0.139888 -0.104497 
-0.161033 -0.140138 -0.104584 
-0.160476 -0.140428 -0.104570 
-0.159794 -0.140802 -0.104350 
-0.159049 -0.141216 -0.104028 
-0.158242 -0.141672 -0.103604 
-0.156872 -0.142498 -0.102258 
-0.154565 -0.143944 -0.099375 
-0.153570 -0.144523 -0.098643 
-0.152638 -0.145061 -0.098014 
-0.151706 -0.145599 -0.097384 
-0.150836 -0.146096 -0.096858 
-0.150092 -0.146511 -0.096536 
-0.149347 -0.146925 -0.096214 
-0.148790 -0.147216 -0.096199 
-0.209487 -0.119346 -0.062716 
-0.209368 -0.119348 -0.063418 
-0.209186 -0.119391 -0.064018 
-0.209004 -0.119434 -0.064618 
-0.208760 -0.119518 -0.065116 
-0.208390 -0.119685 -0.065408 
-0.207958 -0.119894 -0.065599 
-0.207401 -0.120184 -0.065584 
-0.206907 -0.120435 -0.065672 
-0.206288 -0.120767 -0.065555 
-0.205668 -0.121099 -0.065438 
-0.204987 -0.121473 -0.065218 
-0.204305 -0.121846 -0.064999 
-0.203685 -0.122178 -0.064882 
-0.202879 -0.122634 -0.064458 
-0.202197 -0.123008 -0.064238 
-0.201577 -0.123339 -0.064121 
-0.200896 -0.123714 -0.063901 
-0.200214 -0.124087 -0.063682 
-0.199594 -0.124419 -0.063565 
-0.198913 -0.124793 -0.063345 
-0.198293 -0.125125 -0.063228 
-0.197549 -0.125540 -0.062907 
-0.196867 -0.125913 -0.062687 
-0.196248 -0.126245 -0.062570 
-0.195504 -0.126660 -0.062248 
-0.194634 -0.127157 -0.061721 
-0.193515 -0.127820 -0.060785 
-0.192333 -0.128524 -0.059746 
-0.191589 -0.128939 -0.059424 
-0.161456 -0.141219 -0.098950 
-0.161399 -0.141180 -0.099755 
-0.161655 -0.140933 -0.101072 
-0.161473 -0.140977 -0.101672 
-0.162165 -0.140441 -0.103706 
-0.161921 -0.140526 -0.104203 
-0.161489 -0.140734 -0.104393 
-0.160995 -0.140983 -0.104481 
-0.160376 -0.141316 -0.104364 
-0.159694 -0.141689 -0.104145 
-0.158887 -0.142146 -0.103720 
-0.157893 -0.142725 -0.102989 
-0.156523 -0.143553 -0.101643 
-0.154779 -0.144629 -0.099682 
-0.153910 -0.145127 -0.099155 
-0.152791 -0.145789 -0.098218 
-0.151921 -0.146286 -0.097692 
-0.150990 -0.146825 -0.097062 
-0.150308 -0.147198 -0.096843 
-0.149689 -0.147531 -0.096726 
-0.209763 -0.119987 -0.063125 
-0.209581 -0.120030 -0.063725 
-0.209461 -0.120032 -0.064427 
-0.209279 -0.120074 -0.065027 
-0.209035 -0.120159 -0.065525 
-0.208728 -0.120284 -0.065920 
-0.208234 -0.120534 -0.066008 
-0.207739 -0.120783 -0.066096 
-0.207183 -0.121075 -0.066081 
-0.206563 -0.121407 -0.065964 
-0.205944 -0.121740 -0.065847 
-0.205263 -0.122114 -0.065628 
-0.204581 -0.122487 -0.065408 
-0.203899 -0.122861 -0.065189 
-0.203155 -0.123276 -0.064867 
-0.202411 -0.123692 -0.064545 
-0.201729 -0.124066 -0.064326 
-0.201110 -0.124398 -0.064208 
-0.200366 -0.124813 -0.063887 
-0.199747 -0.125146 -0.063770 
-0.199003 -0.125561 -0.063448 
-0.198383 -0.125893 -0.063331 
-0.197639 -0.126308 -0.063009 
-0.196895 -0.126724 -0.062687 
-0.196151 -0.127139 -0.062365 
-0.195282 -0.127637 -0.061838 
-0.194226 -0.128259 -0.061004 
-0.192982 -0.129005 -0.059863 
-0.192488 -0.129255 -0.059951 
-0.161675 -0.141821 -0.100164 
-0.161743 -0.141698 -0.101174 
-0.161873 -0.141534 -0.102285 
-0.162065 -0.141329 -0.103500 
-0.161821 -0.141413 -0.103998 
-0.161389 -0.141622 -0.104188 
-0.160895 -0.141871 -0.104276 
-0.160151 -0.142286 -0.103954 
-0.159407 -0.142702 -0.103632 
-0.158725 -0.143076 -0.103413 
-0.157731 -0.143656 -0.102681 
-0.156238 -0.144568 -0.101130 
-0.155119 -0.145231 -0.100194 
-0.153875 -0.145977 -0.099052 
-0.152881 -0.146558 -0.098321 
-0.152012 -0.147056 -0.097794 
-0.151206 -0.147513 -0.097370 
-0.150524 -0.147886 -0.097150 
-0.209976 -0.120669 -0.063432 
-0.209856 -0.120670 -0.064134 
-0.209799 -0.120630 -0.064939 
-0.209554 -0.120715 -0.065436 
-0.209310 -0.120798 -0.065934 
-0.209003 -0.120924 -0.066329 
-0.208571 -0.121132 -0.066519 
-0.208077 -0.121383 -0.066607 
-0.207458 -0.121715 -0.066490 
-0.206838 -0.122047 -0.066373 
-0.206219 -0.122380 -0.066256 
-0.205538 -0.122755 -0.066037 
-0.204794 -0.123170 -0.065715 
-0.204050 -0.123586 -0.065393 
-0.203369 -0.123960 -0.065174 
-0.202688 -0.124335 -0.064954 
-0.201881 -0.124791 -0.064530 
-0.201199 -0.125165 -0.064311 
-0.200518 -0.125539 -0.064091 
-0.199837 -0.125914 -0.063872 
-0.199155 -0.126288 -0.063652 
-0.198411 -0.126704 -0.063331 
-0.197605 -0.127161 -0.062906 
-0.196861 -0.127576 -0.062585 
-0.195930 -0.128116 -0.061955 
-0.194874 -0.128739 -0.061122 
-0.193818 -0.129362 -0.060288 
-0.193074 -0.129777 -0.059966 
-0.161951 -0.142462 -0.100573 
-0.161768 -0.142505 -0.101173 
-0.162023 -0.142257 -0.102490 
-0.162028 -0.142175 -0.103397 
-0.161721 -0.142301 -0.103792 
-0.161289 -0.142509 -0.103982 
-0.160608 -0.142883 -0.103763 
-0.159926 -0.143257 -0.103543 
-0.159307 -0.143590 -0.103427 
-0.158564 -0.144006 -0.103105 
-0.157570 -0.144588 -0.102373 
-0.156077 -0.145500 -0.100822 
-0.155209 -0.145999 -0.100296 
-0.153903 -0.146787 -0.099052 
-0.153097 -0.147244 -0.098628 
-0.152103 -0.147826 -0.097896 
-0.151484 -0.148158 -0.097779 
-0.210126 -0.121392 -0.063636 
-0.210194 -0.121269 -0.064646 
-0.210011 -0.121312 -0.065245 
-0.209829 -0.121354 -0.065845 
-0.209584 -0.121438 -0.066343 
-0.209277 -0.121563 -0.066738 
-0.208846 -0.121772 -0.066928 
-0.208352 -0.122022 -0.067016 
-0.207733 -0.122355 -0.066899 
-0.207176 -0.122646 -0.066885 
-0.206495 -0.123021 -0.066665 
-0.205751 -0.123437 -0.066343 
-0.205070 -0.123812 -0.066124 
-0.204264 -0.124269 -0.065700 
-0.203583 -0.124644 -0.065481 
-0.202839 -0.125059 -0.065159 
-0.202158 -0.125434 -0.064939 
-0.201289 -0.125933 -0.064413 
-0.200671 -0.126266 -0.064296 
-0.199926 -0.126682 -0.063974 
-0.199183 -0.127098 -0.063652 
-0.198315 -0.127597 -0.063126 
-0.197571 -0.128013 -0.062804 
-0.196578 -0.128595 -0.062072 
-0.195709 -0.129094 -0.061546 
-0.194529 -0.129801 -0.060507 
-0.193785 -0.130217 -0.060186 
-0.161976 -0.143268 -0.100572 
-0.161981 -0.143186 -0.101480 
-0.162048 -0.143063 -0.102489 
-0.161929 -0.143064 -0.103191 
-0.161559 -0.143231 -0.103484 
-0.161065 -0.143481 -0.103572 
-0.160384 -0.143855 -0.103353 
-0.159703 -0.144230 -0.103133 
-0.159146 -0.144522 -0.103119 
-0.158278 -0.145020 -0.102592 
-0.157284 -0.145602 -0.101861 
-0.156104 -0.146309 -0.100822 
-0.155048 -0.146932 -0.099988 
-0.153868 -0.147639 -0.098950 
-0.153000 -0.148138 -0.098423 
-0.152256 -0.148555 -0.098101 
-0.210152 -0.122199 -0.063635 
-0.210344 -0.121992 -0.064850 
-0.210224 -0.121992 -0.065552 
-0.210104 -0.121993 -0.066254 
-0.209859 -0.122077 -0.066752 
-0.209552 -0.122203 -0.067147 
-0.209120 -0.122411 -0.067337 
-0.208626 -0.122661 -0.067425 
-0.208007 -0.122994 -0.067308 
-0.207389 -0.123328 -0.067191 
-0.206770 -0.123661 -0.067074 
-0.206027 -0.124078 -0.066753 
-0.205221 -0.124535 -0.066328 
-0.204478 -0.124952 -0.066007 
-0.203734 -0.125368 -0.065685 
-0.202990 -0.125785 -0.065363 
-0.202309 -0.126160 -0.065144 
-0.201441 -0.126659 -0.064617 
-0.200698 -0.127075 -0.064296 
-0.200017 -0.127450 -0.064076 
-0.199148 -0.127950 -0.063550 
-0.198280 -0.128449 -0.063023 
-0.197412 -0.128949 -0.062497 
-0.196357 -0.129574 -0.061663 
-0.195364 -0.130156 -0.060932 
-0.194434 -0.130697 -0.060303 
-0.161945 -0.144034 -0.101377 
-0.162074 -0.143869 -0.102489 
-0.161767 -0.143995 -0.102884 
-0.161335 -0.144203 -0.103074 
-0.160779 -0.144495 -0.103059 
-0.160098 -0.144869 -0.102840 
-0.159417 -0.145244 -0.102621 
-0.158860 -0.145536 -0.102606 
-0.158055 -0.145994 -0.102182 
-0.156937 -0.146660 -0.101246 
-0.156069 -0.147160 -0.100719 
-0.154764 -0.147950 -0.099476 
-0.153959 -0.148408 -0.099052 
-0.152841 -0.149074 -0.098116 
-0.210557 -0.122673 -0.065156 
-0.210498 -0.122632 -0.065961 
-0.210316 -0.122674 -0.066561 
-0.210071 -0.122758 -0.067058 
-0.209764 -0.122884 -0.067453 
-0.209395 -0.123051 -0.067746 
-0.208901 -0.123300 -0.067834 
-0.208282 -0.123634 -0.067717 
-0.207664 -0.123967 -0.067600 
-0.206983 -0.124342 -0.067381 
-0.206302 -0.124718 -0.067162 
-0.205434 -0.125218 -0.066635 
-0.204753 -0.125593 -0.066416 
-0.203823 -0.126135 -0.065787 
-0.203204 -0.126469 -0.065670 
-0.202336 -0.126968 -0.065144 
-0.201531 -0.127427 -0.064719 
-0.200788 -0.127844 -0.064398 
-0.199982 -0.128302 -0.063974 
-0.199052 -0.128844 -0.063345 
-0.198060 -0.129427 -0.062614 
-0.197005 -0.130052 -0.061780 
-0.196075 -0.130594 -0.061151 
-0.195207 -0.131094 -0.060625 
-0.161851 -0.144843 -0.102078 
-0.161544 -0.144967 -0.102474 
-0.161050 -0.145218 -0.102561 
-0.160369 -0.145593 -0.102342 
-0.159875 -0.145843 -0.102430 
-0.159256 -0.146177 -0.102313 
-0.158513 -0.146594 -0.101991 
-0.157645 -0.147093 -0.101465 
-0.156653 -0.147677 -0.100734 
-0.155847 -0.148135 -0.100310 
-0.154730 -0.148802 -0.099374 
-0.210707 -0.123396 -0.065361 
-0.210587 -0.123397 -0.066063 
-0.210466 -0.123396 -0.066765 
-0.210284 -0.123438 -0.067365 
-0.209976 -0.123563 -0.067760 
-0.209607 -0.123730 -0.068053 
-0.209113 -0.123981 -0.068140 
-0.208619 -0.124231 -0.068228 
-0.207876 -0.124649 -0.067907 
-0.207258 -0.124983 -0.067790 
-0.206452 -0.125441 -0.067366 
-0.205647 -0.125900 -0.066942 
-0.204904 -0.126317 -0.066620 
-0.203974 -0.126860 -0.065991 
-0.203294 -0.127235 -0.065772 
-0.202488 -0.127695 -0.065348 
-0.201621 -0.128195 -0.064822 
-0.200878 -0.128612 -0.064500 
-0.199823 -0.129238 -0.063667 
-0.198894 -0.129780 -0.063038 
-0.197901 -0.130364 -0.062307 
-0.196723 -0.131073 -0.061268 
-0.195855 -0.131574 -0.060742 
-0.161130 -0.146150 -0.100849 
-0.161072 -0.146108 -0.101654 
-0.160578 -0.146358 -0.101742 
-0.160084 -0.146609 -0.101830 
-0.159528 -0.146901 -0.101815 
-0.158909 -0.147235 -0.101698 
-0.158228 -0.147611 -0.101479 
-0.157485 -0.148028 -0.101158 
-0.156493 -0.148611 -0.100426 
-0.155377 -0.149279 -0.099490 
-0.210794 -0.124160 -0.065462 
-0.210799 -0.124077 -0.066369 
-0.210678 -0.124077 -0.067071 
-0.210433 -0.124160 -0.067569 
-0.210188 -0.124244 -0.068066 
-0.209819 -0.124411 -0.068359 
-0.209325 -0.124661 -0.068447 
-0.208831 -0.124912 -0.068535 
-0.208089 -0.125330 -0.068213 
-0.207408 -0.125705 -0.067994 
-0.206665 -0.126123 -0.067673 
-0.205860 -0.126583 -0.067249 
-0.205055 -0.127042 -0.066825 
-0.204188 -0.127543 -0.066298 
-0.203259 -0.128086 -0.065670 
-0.202578 -0.128462 -0.065450 
-0.201710 -0.128962 -0.064924 
-0.200719 -0.129548 -0.064193 
-0.199603 -0.130216 -0.063257 
-0.198611 -0.130801 -0.062526 
-0.197308 -0.131594 -0.061283 
-0.196627 -0.131970 -0.061064 
-0.160476 -0.147333 -0.100630 
-0.160293 -0.147375 -0.101230 
-0.159675 -0.147709 -0.101113 
