ply
format ascii 1.0
comment created by MATLAB ply_write
element vertex 1595
property float x
property float y
property float z
end_header
0.198076 -0.089096 -0.215192 
0.198423 -0.089354 -0.214844 
0.198770 -0.089612 -0.214497 
0.199117 -0.089870 -0.214151 
0.199350 -0.090164 -0.213798 
0.199583 -0.090457 -0.213446 
0.199815 -0.090751 -0.213094 
0.200048 -0.091045 -0.212742 
0.200281 -0.091339 -0.212390 
0.200628 -0.091596 -0.212043 
0.201089 -0.091819 -0.211701 
0.201322 -0.092112 -0.211349 
0.201783 -0.092334 -0.211007 
0.202016 -0.092628 -0.210655 
0.202363 -0.092886 -0.210308 
0.202596 -0.093180 -0.209956 
0.202828 -0.093473 -0.209604 
0.203175 -0.093731 -0.209256 
0.203522 -0.093990 -0.208910 
0.203755 -0.094283 -0.208558 
0.204102 -0.094541 -0.208210 
0.204563 -0.094763 -0.207868 
0.204910 -0.095022 -0.207522 
0.205257 -0.095279 -0.207175 
0.205719 -0.095502 -0.206833 
0.206066 -0.095760 -0.206486 
0.206412 -0.096018 -0.206138 
0.206874 -0.096240 -0.205796 
0.207221 -0.096498 -0.205449 
0.207568 -0.096756 -0.205102 
0.207915 -0.097013 -0.204755 
0.208262 -0.097272 -0.204408 
0.208494 -0.097565 -0.204056 
0.208841 -0.097824 -0.203709 
0.209188 -0.098081 -0.203362 
0.209535 -0.098339 -0.203015 
0.209882 -0.098597 -0.202668 
0.210115 -0.098891 -0.202316 
0.210348 -0.099184 -0.201964 
0.210695 -0.099443 -0.201617 
0.210928 -0.099736 -0.201265 
0.211274 -0.099994 -0.200917 
0.211622 -0.100252 -0.200571 
0.211740 -0.100582 -0.200214 
0.211973 -0.100875 -0.199861 
0.212206 -0.101169 -0.199510 
0.212438 -0.101462 -0.199157 
0.212671 -0.101756 -0.198805 
0.212904 -0.102050 -0.198454 
0.213023 -0.102379 -0.198097 
0.213255 -0.102673 -0.197744 
0.213374 -0.103002 -0.197387 
0.213492 -0.103331 -0.197030 
0.213725 -0.103625 -0.196678 
0.213844 -0.103955 -0.196321 
0.214076 -0.104249 -0.195969 
0.214195 -0.104578 -0.195612 
0.214314 -0.104907 -0.195255 
0.214660 -0.105165 -0.194908 
0.214779 -0.105495 -0.194551 
0.214897 -0.105824 -0.194194 
0.215130 -0.106117 -0.193842 
0.215363 -0.106411 -0.193490 
0.215596 -0.106705 -0.193138 
0.215714 -0.107034 -0.192781 
0.215947 -0.107328 -0.192429 
0.216180 -0.107622 -0.192077 
0.216412 -0.107915 -0.191724 
0.216645 -0.108209 -0.191373 
0.216764 -0.108538 -0.191016 
0.216997 -0.108832 -0.190664 
0.217229 -0.109125 -0.190311 
0.217462 -0.109419 -0.189960 
0.217581 -0.109749 -0.189603 
0.217813 -0.110042 -0.189250 
0.218046 -0.110336 -0.188898 
0.218165 -0.110665 -0.188541 
0.218397 -0.110959 -0.188190 
0.218744 -0.111217 -0.187842 
0.218977 -0.111510 -0.187490 
0.219210 -0.111804 -0.187138 
0.219443 -0.112098 -0.186786 
0.219675 -0.112391 -0.186434 
0.219794 -0.112721 -0.186077 
0.220027 -0.113015 -0.185725 
0.220260 -0.113309 -0.185373 
0.220607 -0.113566 -0.185026 
0.220725 -0.113896 -0.184669 
0.220729 -0.114261 -0.184307 
0.220962 -0.114554 -0.183955 
0.220966 -0.114919 -0.183593 
0.221199 -0.115213 -0.183241 
0.221203 -0.115578 -0.182879 
0.221322 -0.115907 -0.182522 
0.221326 -0.116273 -0.182160 
0.221331 -0.116638 -0.181798 
0.221449 -0.116967 -0.181441 
0.221453 -0.117332 -0.181079 
0.221458 -0.117697 -0.180717 
0.221576 -0.118027 -0.180360 
0.221695 -0.118356 -0.180003 
0.221927 -0.118649 -0.179650 
0.221932 -0.119015 -0.179289 
0.221936 -0.119380 -0.178927 
0.222055 -0.119709 -0.178570 
0.222059 -0.120074 -0.178207 
0.222063 -0.120439 -0.177846 
0.222067 -0.120804 -0.177483 
0.222072 -0.121169 -0.177122 
0.222190 -0.121499 -0.176765 
0.222080 -0.121899 -0.176397 
0.222199 -0.122228 -0.176040 
0.222203 -0.122594 -0.175679 
0.222207 -0.122959 -0.175316 
0.222212 -0.123324 -0.174955 
0.222216 -0.123689 -0.174592 
0.222220 -0.124054 -0.174230 
0.222110 -0.124455 -0.173863 
0.222115 -0.124820 -0.173502 
0.222005 -0.125220 -0.173134 
0.222009 -0.125586 -0.172773 
0.221899 -0.125987 -0.172406 
0.221903 -0.126352 -0.172043 
0.221908 -0.126716 -0.171681 
0.221912 -0.127082 -0.171319 
0.221802 -0.127482 -0.170952 
0.221692 -0.127883 -0.170585 
0.221468 -0.128319 -0.170213 
0.221244 -0.128756 -0.169842 
0.221134 -0.129157 -0.169474 
0.220910 -0.129594 -0.169103 
0.220800 -0.129994 -0.168735 
0.220690 -0.130395 -0.168368 
0.220466 -0.130831 -0.167996 
0.220242 -0.131267 -0.167624 
0.219903 -0.131740 -0.167247 
0.219679 -0.132176 -0.166875 
0.219341 -0.132649 -0.166498 
0.218888 -0.133157 -0.166116 
0.218550 -0.133628 -0.165739 
0.218211 -0.134101 -0.165362 
0.217530 -0.134680 -0.164971 
0.216735 -0.135295 -0.164574 
0.216168 -0.135838 -0.164186 
0.215259 -0.136489 -0.163785 
0.214577 -0.137068 -0.163392 
0.214239 -0.137541 -0.163016 
0.213444 -0.138156 -0.162619 
0.212991 -0.138663 -0.162237 
0.212539 -0.139171 -0.161855 
0.212086 -0.139679 -0.161473 
0.211747 -0.140151 -0.161095 
0.211295 -0.140659 -0.160713 
0.210728 -0.141203 -0.160327 
0.210276 -0.141711 -0.159945 
0.209709 -0.142254 -0.159558 
0.207999 -0.143154 -0.159121 
0.207433 -0.143698 -0.158734 
0.206866 -0.144242 -0.158347 
0.206528 -0.144714 -0.157970 
0.205846 -0.145293 -0.157578 
0.205394 -0.145801 -0.157196 
0.204941 -0.146309 -0.156814 
0.204717 -0.146745 -0.156442 
0.204607 -0.147146 -0.156075 
0.204726 -0.147475 -0.155718 
0.204958 -0.147769 -0.155366 
0.205077 -0.148099 -0.155009 
0.205424 -0.148356 -0.154662 
0.205771 -0.148614 -0.154315 
0.206118 -0.148873 -0.153968 
0.206465 -0.149131 -0.153621 
0.206697 -0.149424 -0.153269 
0.207045 -0.149682 -0.152922 
0.207163 -0.150012 -0.152565 
0.207510 -0.150270 -0.152218 
0.207743 -0.150563 -0.151865 
0.207976 -0.150857 -0.151514 
0.208094 -0.151186 -0.151157 
0.208327 -0.151480 -0.150805 
0.208445 -0.151809 -0.150448 
0.208564 -0.152139 -0.150091 
0.208682 -0.152468 -0.149734 
0.208572 -0.152868 -0.149366 
0.208691 -0.153198 -0.149009 
0.208695 -0.153563 -0.148648 
0.208700 -0.153928 -0.148285 
0.208475 -0.154364 -0.147913 
0.208251 -0.154801 -0.147542 
0.208027 -0.155238 -0.147170 
0.207689 -0.155709 -0.146792 
0.207350 -0.156182 -0.146416 
0.207005 -0.156655 -0.146037 
0.206393 -0.157204 -0.145640 
0.206025 -0.157681 -0.145258 
0.205292 -0.158267 -0.144855 
0.204802 -0.158780 -0.144465 
0.204312 -0.159292 -0.144075 
0.203579 -0.159879 -0.143673 
0.201751 -0.160795 -0.143211 
0.200044 -0.161675 -0.142756 
0.158334 -0.070547 -0.244755 
0.158939 -0.070729 -0.244424 
0.160639 -0.070581 -0.244151 
0.161366 -0.070727 -0.243827 
0.161971 -0.070909 -0.243496 
0.162698 -0.071055 -0.243171 
0.163303 -0.071238 -0.242840 
0.163908 -0.071420 -0.242509 
0.164513 -0.071602 -0.242178 
0.165118 -0.071785 -0.241847 
0.165601 -0.072003 -0.241509 
0.165964 -0.072260 -0.241165 
0.166447 -0.072478 -0.240827 
0.166809 -0.072735 -0.240484 
0.167292 -0.072953 -0.240146 
0.168141 -0.073063 -0.239828 
0.168867 -0.073208 -0.239503 
0.169837 -0.073280 -0.239192 
0.170564 -0.073426 -0.238867 
0.171048 -0.073645 -0.238530 
0.171653 -0.073827 -0.238198 
0.172014 -0.074083 -0.237854 
0.172255 -0.074376 -0.237504 
0.172616 -0.074632 -0.237160 
0.172978 -0.074888 -0.236815 
0.173462 -0.075107 -0.236478 
0.173702 -0.075400 -0.236128 
0.174429 -0.075545 -0.235803 
0.176980 -0.075139 -0.235575 
0.177585 -0.075322 -0.235245 
0.178175 -0.075506 -0.234910 
0.178636 -0.075728 -0.234568 
0.178984 -0.075987 -0.234221 
0.179330 -0.076244 -0.233874 
0.179677 -0.076502 -0.233527 
0.179910 -0.076796 -0.233174 
0.180143 -0.077089 -0.232823 
0.180261 -0.077419 -0.232466 
0.180494 -0.077712 -0.232113 
0.180955 -0.077934 -0.231771 
0.181531 -0.078121 -0.231434 
0.182106 -0.078307 -0.231096 
0.182567 -0.078529 -0.230755 
0.182914 -0.078787 -0.230407 
0.183147 -0.079080 -0.230055 
0.183380 -0.079374 -0.229703 
0.183612 -0.079668 -0.229351 
0.183845 -0.079962 -0.228999 
0.184078 -0.080255 -0.228646 
0.184196 -0.080584 -0.228289 
0.184543 -0.080842 -0.227942 
0.184890 -0.081100 -0.227595 
0.185123 -0.081394 -0.227243 
0.185470 -0.081652 -0.226896 
0.185817 -0.081909 -0.226549 
0.186506 -0.082060 -0.226217 
0.186853 -0.082318 -0.225869 
0.187314 -0.082540 -0.225527 
0.187661 -0.082798 -0.225180 
0.187894 -0.083092 -0.224828 
0.188241 -0.083349 -0.224481 
0.188474 -0.083643 -0.224129 
0.188707 -0.083937 -0.223776 
0.189054 -0.084194 -0.223429 
0.189400 -0.084452 -0.223082 
0.189747 -0.084710 -0.222735 
0.190094 -0.084968 -0.222388 
0.190556 -0.085190 -0.222046 
0.191017 -0.085413 -0.221704 
0.191364 -0.085670 -0.221357 
0.191825 -0.085892 -0.221014 
0.192058 -0.086186 -0.220662 
0.192405 -0.086444 -0.220315 
0.192752 -0.086702 -0.219968 
0.193098 -0.086960 -0.219621 
0.193445 -0.087217 -0.219273 
0.193907 -0.087440 -0.218931 
0.194139 -0.087733 -0.218579 
0.194486 -0.087991 -0.218232 
0.194947 -0.088213 -0.217890 
0.195294 -0.088471 -0.217543 
0.195755 -0.088693 -0.217200 
0.196102 -0.088951 -0.216853 
0.196564 -0.089173 -0.216511 
0.197025 -0.089395 -0.216169 
0.197486 -0.089617 -0.215826 
0.197947 -0.089840 -0.215484 
0.198408 -0.090061 -0.215142 
0.198641 -0.090355 -0.214790 
0.198874 -0.090648 -0.214438 
0.199221 -0.090907 -0.214091 
0.199453 -0.091200 -0.213739 
0.199686 -0.091494 -0.213387 
0.199919 -0.091787 -0.213034 
0.200266 -0.092045 -0.212687 
0.200613 -0.092303 -0.212340 
0.200960 -0.092561 -0.211993 
0.201307 -0.092819 -0.211646 
0.201768 -0.093041 -0.211304 
0.202000 -0.093334 -0.210951 
0.202462 -0.093557 -0.210609 
0.202809 -0.093815 -0.210262 
0.203156 -0.094072 -0.209915 
0.203617 -0.094295 -0.209573 
0.203964 -0.094553 -0.209226 
0.204311 -0.094810 -0.208878 
0.204772 -0.095033 -0.208537 
0.205233 -0.095255 -0.208194 
0.205580 -0.095512 -0.207847 
0.205927 -0.095770 -0.207499 
0.206388 -0.095993 -0.207158 
0.206735 -0.096250 -0.206810 
0.207082 -0.096508 -0.206463 
0.207543 -0.096731 -0.206121 
0.207890 -0.096988 -0.205774 
0.208237 -0.097246 -0.205427 
0.208584 -0.097504 -0.205080 
0.208817 -0.097797 -0.204727 
0.209163 -0.098055 -0.204380 
0.209510 -0.098313 -0.204033 
0.209857 -0.098571 -0.203686 
0.210204 -0.098829 -0.203338 
0.210437 -0.099123 -0.202987 
0.210784 -0.099380 -0.202639 
0.211017 -0.099674 -0.202288 
0.211250 -0.099968 -0.201935 
0.211482 -0.100261 -0.201583 
0.211829 -0.100519 -0.201236 
0.212062 -0.100813 -0.200884 
0.212295 -0.101106 -0.200532 
0.212642 -0.101364 -0.200185 
0.212760 -0.101694 -0.199828 
0.212993 -0.101987 -0.199475 
0.213226 -0.102281 -0.199123 
0.213458 -0.102574 -0.198771 
0.213577 -0.102903 -0.198414 
0.213695 -0.103233 -0.198057 
0.213928 -0.103527 -0.197705 
0.214161 -0.103820 -0.197353 
0.214279 -0.104149 -0.196996 
0.214398 -0.104479 -0.196639 
0.214631 -0.104773 -0.196287 
0.214749 -0.105102 -0.195930 
0.214868 -0.105431 -0.195573 
0.215101 -0.105725 -0.195221 
0.215333 -0.106019 -0.194869 
0.215452 -0.106348 -0.194512 
0.215685 -0.106642 -0.194160 
0.215803 -0.106971 -0.193803 
0.215922 -0.107301 -0.193446 
0.216154 -0.107594 -0.193093 
0.216387 -0.107888 -0.192742 
0.216506 -0.108217 -0.192385 
0.216738 -0.108510 -0.192032 
0.216971 -0.108804 -0.191680 
0.217090 -0.109134 -0.191323 
0.217322 -0.109427 -0.190971 
0.217555 -0.109721 -0.190619 
0.217674 -0.110050 -0.190262 
0.217792 -0.110380 -0.189905 
0.218025 -0.110673 -0.189553 
0.218143 -0.111002 -0.189196 
0.218262 -0.111332 -0.188838 
0.218495 -0.111626 -0.188487 
0.218613 -0.111955 -0.188130 
0.218846 -0.112248 -0.187777 
0.219079 -0.112542 -0.187425 
0.219311 -0.112835 -0.187073 
0.219544 -0.113129 -0.186721 
0.219777 -0.113423 -0.186369 
0.219895 -0.113752 -0.186012 
0.220128 -0.114046 -0.185660 
0.220361 -0.114340 -0.185308 
0.220480 -0.114669 -0.184951 
0.220598 -0.114999 -0.184594 
0.220717 -0.115328 -0.184237 
0.220835 -0.115657 -0.183880 
0.220954 -0.115987 -0.183523 
0.221072 -0.116316 -0.183166 
0.221076 -0.116681 -0.182804 
0.221195 -0.117010 -0.182447 
0.221314 -0.117340 -0.182090 
0.221318 -0.117704 -0.181727 
0.221436 -0.118034 -0.181370 
0.221441 -0.118399 -0.181009 
0.221559 -0.118729 -0.180652 
0.221678 -0.119058 -0.180295 
0.221682 -0.119423 -0.179932 
0.221800 -0.119752 -0.179575 
0.221805 -0.120118 -0.179214 
0.221923 -0.120447 -0.178857 
0.221928 -0.120812 -0.178495 
0.221818 -0.121213 -0.178128 
0.221936 -0.121542 -0.177771 
0.221941 -0.121908 -0.177409 
0.221945 -0.122272 -0.177047 
0.221949 -0.122638 -0.176685 
0.222068 -0.122967 -0.176328 
0.222072 -0.123332 -0.175966 
0.222191 -0.123661 -0.175609 
0.222195 -0.124027 -0.175247 
0.222199 -0.124392 -0.174885 
0.222204 -0.124757 -0.174523 
0.222094 -0.125158 -0.174156 
0.221984 -0.125558 -0.173789 
0.221988 -0.125924 -0.173427 
0.221878 -0.126325 -0.173060 
0.221768 -0.126726 -0.172694 
0.221773 -0.127090 -0.172331 
0.221777 -0.127456 -0.171970 
0.221781 -0.127821 -0.171607 
0.221786 -0.128186 -0.171246 
0.221562 -0.128622 -0.170874 
0.221338 -0.129059 -0.170502 
0.221342 -0.129424 -0.170140 
0.221004 -0.129897 -0.169763 
0.220779 -0.130333 -0.169391 
0.220669 -0.130734 -0.169024 
0.220445 -0.131171 -0.168653 
0.220336 -0.131572 -0.168286 
0.219883 -0.132080 -0.167904 
0.219659 -0.132516 -0.167532 
0.219435 -0.132953 -0.167161 
0.218982 -0.133461 -0.166779 
0.218644 -0.133933 -0.166402 
0.218191 -0.134441 -0.166020 
0.217511 -0.135021 -0.165629 
0.216601 -0.135672 -0.165227 
0.215920 -0.136252 -0.164836 
0.215125 -0.136867 -0.164439 
0.214444 -0.137447 -0.164047 
0.214106 -0.137919 -0.163671 
0.213539 -0.138463 -0.163284 
0.212972 -0.139007 -0.162898 
0.212520 -0.139515 -0.162516 
0.212182 -0.139988 -0.162139 
0.211729 -0.140495 -0.161757 
0.211277 -0.141004 -0.161376 
0.210824 -0.141512 -0.160994 
0.210257 -0.142056 -0.160607 
0.209805 -0.142564 -0.160226 
0.208210 -0.143429 -0.159794 
0.207415 -0.144045 -0.159398 
0.206848 -0.144589 -0.159012 
0.206396 -0.145097 -0.158630 
0.205829 -0.145641 -0.158243 
0.205376 -0.146149 -0.157861 
0.204924 -0.146657 -0.157480 
0.204700 -0.147094 -0.157108 
0.204704 -0.147459 -0.156746 
0.204823 -0.147788 -0.156389 
0.205055 -0.148082 -0.156037 
0.205288 -0.148376 -0.155685 
0.205521 -0.148669 -0.155333 
0.205868 -0.148927 -0.154985 
0.206215 -0.149185 -0.154638 
0.206562 -0.149442 -0.154291 
0.206909 -0.149700 -0.153944 
0.207141 -0.149994 -0.153592 
0.207374 -0.150287 -0.153239 
0.207607 -0.150581 -0.152888 
0.207840 -0.150875 -0.152535 
0.208072 -0.151169 -0.152183 
0.208305 -0.151462 -0.151832 
0.208538 -0.151756 -0.151479 
0.208656 -0.152085 -0.151122 
0.208775 -0.152414 -0.150765 
0.208779 -0.152780 -0.150404 
0.208898 -0.153109 -0.150047 
0.208902 -0.153474 -0.149684 
0.208906 -0.153839 -0.149322 
0.208911 -0.154204 -0.148960 
0.208801 -0.154605 -0.148594 
0.208691 -0.155006 -0.148227 
0.208238 -0.155514 -0.147845 
0.208014 -0.155951 -0.147473 
0.207562 -0.156459 -0.147091 
0.207224 -0.156931 -0.146715 
0.206855 -0.157407 -0.146331 
0.206244 -0.157958 -0.145936 
0.205754 -0.158471 -0.145546 
0.205143 -0.159020 -0.145150 
0.204775 -0.159497 -0.144767 
0.204164 -0.160047 -0.144372 
0.203066 -0.160744 -0.143950 
0.200995 -0.161734 -0.143476 
0.158188 -0.071307 -0.245058 
0.159158 -0.071378 -0.244745 
0.160371 -0.071377 -0.244446 
0.161098 -0.071522 -0.244121 
0.161703 -0.071705 -0.243790 
0.162429 -0.071850 -0.243465 
0.163034 -0.072032 -0.243134 
0.163761 -0.072178 -0.242809 
0.164244 -0.072396 -0.242471 
0.164849 -0.072578 -0.242140 
0.165333 -0.072798 -0.241802 
0.165695 -0.073053 -0.241458 
0.166178 -0.073272 -0.241120 
0.166661 -0.073491 -0.240783 
0.167388 -0.073636 -0.240457 
0.167871 -0.073856 -0.240120 
0.168841 -0.073927 -0.239808 
0.169690 -0.074036 -0.239490 
0.170295 -0.074218 -0.239158 
0.170778 -0.074437 -0.238820 
0.171261 -0.074656 -0.238483 
0.171501 -0.074948 -0.238132 
0.171863 -0.075204 -0.237788 
0.172225 -0.075460 -0.237444 
0.172587 -0.075716 -0.237099 
0.173070 -0.075935 -0.236762 
0.173797 -0.076080 -0.236437 
0.174523 -0.076226 -0.236112 
0.175858 -0.076187 -0.235819 
0.177071 -0.076185 -0.235520 
0.177920 -0.076294 -0.235202 
0.178395 -0.076514 -0.234862 
0.178856 -0.076735 -0.234520 
0.179203 -0.076993 -0.234173 
0.179436 -0.077287 -0.233821 
0.179783 -0.077545 -0.233474 
0.180016 -0.077838 -0.233121 
0.180134 -0.078168 -0.232764 
0.180367 -0.078462 -0.232412 
0.180600 -0.078755 -0.232060 
0.180832 -0.079048 -0.231707 
0.180951 -0.079377 -0.231350 
0.181070 -0.079707 -0.230993 
0.181302 -0.080001 -0.230642 
0.181649 -0.080259 -0.230294 
0.182110 -0.080480 -0.229952 
0.183028 -0.080559 -0.229629 
0.183147 -0.080888 -0.229272 
0.183494 -0.081146 -0.228924 
0.183612 -0.081475 -0.228567 
0.183959 -0.081733 -0.228220 
0.184420 -0.081956 -0.227878 
0.184767 -0.082213 -0.227530 
0.185228 -0.082435 -0.227188 
0.185689 -0.082657 -0.226846 
0.186150 -0.082879 -0.226503 
0.186726 -0.083065 -0.226166 
0.187187 -0.083287 -0.225824 
0.187419 -0.083581 -0.225471 
0.187880 -0.083802 -0.225129 
0.188113 -0.084096 -0.224777 
0.188346 -0.084389 -0.224425 
0.188579 -0.084683 -0.224073 
0.188926 -0.084941 -0.223726 
0.189387 -0.085163 -0.223383 
0.189734 -0.085421 -0.223036 
0.190081 -0.085679 -0.222689 
0.190542 -0.085900 -0.222346 
0.190888 -0.086158 -0.221999 
0.191235 -0.086416 -0.221652 
0.191696 -0.086638 -0.221309 
0.191929 -0.086932 -0.220957 
0.192276 -0.087189 -0.220610 
0.192623 -0.087447 -0.220263 
0.192970 -0.087705 -0.219916 
0.193431 -0.087927 -0.219573 
0.193778 -0.088185 -0.219226 
0.194125 -0.088442 -0.218879 
0.194472 -0.088700 -0.218531 
0.194819 -0.088958 -0.218184 
0.195280 -0.089180 -0.217841 
0.195741 -0.089401 -0.217499 
0.196088 -0.089659 -0.217152 
0.196549 -0.089881 -0.216809 
0.196782 -0.090175 -0.216457 
0.197243 -0.090397 -0.216115 
0.197818 -0.090583 -0.215777 
0.198165 -0.090841 -0.215430 
0.198512 -0.091099 -0.215083 
0.198744 -0.091392 -0.214730 
0.199091 -0.091650 -0.214383 
0.199438 -0.091908 -0.214036 
0.199671 -0.092201 -0.213684 
0.200018 -0.092459 -0.213337 
0.200365 -0.092716 -0.212989 
0.200826 -0.092939 -0.212647 
0.201173 -0.093197 -0.212300 
0.201634 -0.093418 -0.211957 
0.202095 -0.093640 -0.211615 
0.202556 -0.093862 -0.211273 
0.203017 -0.094084 -0.210930 
0.203364 -0.094342 -0.210583 
0.203825 -0.094564 -0.210240 
0.204172 -0.094822 -0.209893 
0.204747 -0.095008 -0.209556 
0.204980 -0.095302 -0.209204 
0.205555 -0.095487 -0.208866 
0.206017 -0.095710 -0.208524 
0.206249 -0.096003 -0.208171 
0.206710 -0.096225 -0.207829 
0.207172 -0.096447 -0.207487 
0.207404 -0.096740 -0.207134 
0.207865 -0.096963 -0.206792 
0.208212 -0.097221 -0.206445 
0.208559 -0.097478 -0.206097 
0.208906 -0.097736 -0.205750 
0.209253 -0.097993 -0.205403 
0.209486 -0.098287 -0.205051 
0.209833 -0.098545 -0.204704 
0.210065 -0.098838 -0.204352 
0.210412 -0.099096 -0.204004 
0.210759 -0.099354 -0.203657 
0.210992 -0.099647 -0.203305 
0.211339 -0.099905 -0.202957 
0.211686 -0.100163 -0.202610 
0.211804 -0.100492 -0.202253 
0.212037 -0.100786 -0.201902 
0.212384 -0.101044 -0.201554 
0.212617 -0.101337 -0.201202 
0.212849 -0.101631 -0.200849 
0.213082 -0.101925 -0.200498 
0.213315 -0.102218 -0.200145 
0.213548 -0.102512 -0.199793 
0.213780 -0.102805 -0.199441 
0.213899 -0.103134 -0.199084 
0.214131 -0.103428 -0.198732 
0.214250 -0.103758 -0.198375 
0.214483 -0.104051 -0.198023 
0.214601 -0.104380 -0.197666 
0.214720 -0.104710 -0.197309 
0.214952 -0.105004 -0.196957 
0.215071 -0.105333 -0.196600 
0.215190 -0.105662 -0.196243 
0.215422 -0.105956 -0.195890 
0.215655 -0.106249 -0.195538 
0.215773 -0.106578 -0.195181 
0.216006 -0.106872 -0.194829 
0.216239 -0.107165 -0.194477 
0.216357 -0.107495 -0.194120 
0.216476 -0.107824 -0.193763 
0.216594 -0.108153 -0.193405 
0.216713 -0.108483 -0.193048 
0.216946 -0.108777 -0.192697 
0.217178 -0.109070 -0.192344 
0.217297 -0.109399 -0.191987 
0.217530 -0.109693 -0.191635 
0.217648 -0.110023 -0.191278 
0.217881 -0.110316 -0.190926 
0.217999 -0.110645 -0.190569 
0.218118 -0.110975 -0.190212 
0.218236 -0.111304 -0.189855 
0.218355 -0.111633 -0.189498 
0.218474 -0.111963 -0.189141 
0.218592 -0.112292 -0.188784 
0.218711 -0.112622 -0.188427 
0.218943 -0.112915 -0.188075 
0.219062 -0.113245 -0.187718 
0.219295 -0.113538 -0.187366 
0.219527 -0.113832 -0.187014 
0.219646 -0.114161 -0.186657 
0.219879 -0.114455 -0.186304 
0.220111 -0.114748 -0.185952 
0.220230 -0.115077 -0.185595 
0.220462 -0.115371 -0.185243 
0.220581 -0.115701 -0.184886 
0.220585 -0.116065 -0.184524 
0.220590 -0.116431 -0.184162 
0.220708 -0.116760 -0.183805 
0.220827 -0.117090 -0.183448 
0.220945 -0.117419 -0.183091 
0.221064 -0.117748 -0.182734 
0.221182 -0.118078 -0.182377 
0.221301 -0.118407 -0.182020 
0.221419 -0.118736 -0.181663 
0.221538 -0.119066 -0.181306 
0.221657 -0.119395 -0.180949 
0.221661 -0.119761 -0.180587 
0.221665 -0.120125 -0.180225 
0.221784 -0.120455 -0.179868 
0.221788 -0.120820 -0.179506 
0.221792 -0.121185 -0.179144 
0.221797 -0.121551 -0.178782 
0.221801 -0.121915 -0.178420 
0.221805 -0.122281 -0.178059 
0.221810 -0.122646 -0.177696 
0.221814 -0.123011 -0.177335 
0.221818 -0.123376 -0.176972 
0.221937 -0.123705 -0.176615 
0.221941 -0.124071 -0.176254 
0.221946 -0.124436 -0.175892 
0.222064 -0.124766 -0.175535 
0.222068 -0.125130 -0.175173 
0.222073 -0.125496 -0.174811 
0.222077 -0.125861 -0.174449 
0.221967 -0.126262 -0.174082 
0.221857 -0.126662 -0.173715 
0.221748 -0.127064 -0.173349 
0.221752 -0.127429 -0.172987 
0.221642 -0.127830 -0.172620 
0.221647 -0.128195 -0.172258 
0.221651 -0.128560 -0.171896 
0.221541 -0.128961 -0.171529 
0.221431 -0.129362 -0.171162 
0.221321 -0.129763 -0.170796 
0.220983 -0.130236 -0.170420 
0.220873 -0.130637 -0.170053 
0.220649 -0.131073 -0.169681 
0.220425 -0.131510 -0.169309 
0.220315 -0.131911 -0.168942 
0.219977 -0.132383 -0.168566 
0.219639 -0.132857 -0.168190 
0.219415 -0.133293 -0.167818 
0.219076 -0.133765 -0.167441 
0.218510 -0.134310 -0.167055 
0.218057 -0.134818 -0.166673 
0.217605 -0.135327 -0.166292 
0.216582 -0.136014 -0.165886 
0.216015 -0.136558 -0.165500 
0.214421 -0.137425 -0.165069 
0.214197 -0.137862 -0.164698 
0.213972 -0.138298 -0.164326 
0.213520 -0.138806 -0.163945 
0.212839 -0.139387 -0.163554 
0.212615 -0.139824 -0.163182 
0.212049 -0.140368 -0.162796 
0.211710 -0.140840 -0.162419 
0.211258 -0.141349 -0.162038 
0.210806 -0.141857 -0.161656 
0.210239 -0.142401 -0.161270 
0.209672 -0.142945 -0.160883 
0.209106 -0.143490 -0.160498 
0.207283 -0.144428 -0.160057 
0.206716 -0.144972 -0.159671 
0.206378 -0.145444 -0.159294 
0.205812 -0.145989 -0.158908 
0.205245 -0.146533 -0.158522 
0.204907 -0.147005 -0.158145 
0.204683 -0.147442 -0.157774 
0.204687 -0.147807 -0.157412 
0.204806 -0.148136 -0.157055 
0.205038 -0.148430 -0.156703 
0.205385 -0.148688 -0.156356 
0.205618 -0.148981 -0.156003 
0.205965 -0.149239 -0.155656 
0.206312 -0.149497 -0.155309 
0.206659 -0.149755 -0.154961 
0.207006 -0.150013 -0.154614 
0.207238 -0.150306 -0.154262 
0.207471 -0.150600 -0.153910 
0.207704 -0.150893 -0.153558 
0.207937 -0.151187 -0.153206 
0.208169 -0.151480 -0.152853 
0.208402 -0.151774 -0.152501 
0.208635 -0.152067 -0.152149 
0.208753 -0.152397 -0.151792 
0.208872 -0.152726 -0.151435 
0.209104 -0.153019 -0.151083 
0.209109 -0.153385 -0.150721 
0.209113 -0.153750 -0.150359 
0.209232 -0.154079 -0.150002 
0.209122 -0.154481 -0.149636 
0.209012 -0.154882 -0.149269 
0.208902 -0.155282 -0.148902 
0.208678 -0.155719 -0.148530 
0.208226 -0.156227 -0.148148 
0.207773 -0.156736 -0.147767 
0.207435 -0.157208 -0.147391 
0.207196 -0.157647 -0.147016 
0.206585 -0.158198 -0.146621 
0.206095 -0.158711 -0.146231 
0.205606 -0.159224 -0.145842 
0.205116 -0.159738 -0.145453 
0.204627 -0.160251 -0.145063 
0.203894 -0.160838 -0.144662 
0.201702 -0.161866 -0.144182 
0.200239 -0.162674 -0.143741 
0.159377 -0.072028 -0.245066 
0.159982 -0.072210 -0.244735 
0.160830 -0.072318 -0.244417 
0.161435 -0.072500 -0.244085 
0.162040 -0.072682 -0.243753 
0.162645 -0.072864 -0.243422 
0.163371 -0.073009 -0.243097 
0.164098 -0.073154 -0.242771 
0.164581 -0.073373 -0.242433 
0.165064 -0.073592 -0.242096 
0.165548 -0.073811 -0.241758 
0.165909 -0.074066 -0.241414 
0.166636 -0.074211 -0.241088 
0.167362 -0.074356 -0.240763 
0.167846 -0.074575 -0.240425 
0.168694 -0.074683 -0.240106 
0.169420 -0.074828 -0.239781 
0.170025 -0.075011 -0.239450 
0.170508 -0.075229 -0.239112 
0.170870 -0.075485 -0.238767 
0.171232 -0.075741 -0.238423 
0.171594 -0.075997 -0.238079 
0.171834 -0.076289 -0.237728 
0.172317 -0.076507 -0.237390 
0.172800 -0.076727 -0.237053 
0.173770 -0.076798 -0.236740 
0.174618 -0.076906 -0.236421 
0.175710 -0.076941 -0.236115 
0.176679 -0.077012 -0.235803 
0.177406 -0.077157 -0.235478 
0.178011 -0.077339 -0.235146 
0.178494 -0.077558 -0.234808 
0.178848 -0.077815 -0.234463 
0.179195 -0.078073 -0.234115 
0.179542 -0.078330 -0.233767 
0.179775 -0.078624 -0.233416 
0.180007 -0.078917 -0.233063 
0.180354 -0.079175 -0.232716 
0.180473 -0.079504 -0.232359 
0.180706 -0.079797 -0.232007 
0.180938 -0.080091 -0.231655 
0.181057 -0.080421 -0.231298 
0.181175 -0.080750 -0.230941 
0.181294 -0.081080 -0.230584 
0.181527 -0.081373 -0.230231 
0.181759 -0.081666 -0.229879 
0.182220 -0.081888 -0.229536 
0.182453 -0.082182 -0.229184 
0.182800 -0.082439 -0.228836 
0.183147 -0.082697 -0.228489 
0.183722 -0.082883 -0.228152 
0.184297 -0.083069 -0.227814 
0.184758 -0.083290 -0.227471 
0.185562 -0.083405 -0.227144 
0.185909 -0.083662 -0.226796 
0.186484 -0.083848 -0.226458 
0.186945 -0.084070 -0.226116 
0.187292 -0.084328 -0.225768 
0.187639 -0.084585 -0.225421 
0.187985 -0.084843 -0.225073 
0.188218 -0.085137 -0.224722 
0.188565 -0.085394 -0.224374 
0.188912 -0.085652 -0.224027 
0.189373 -0.085874 -0.223684 
0.189720 -0.086131 -0.223337 
0.190067 -0.086389 -0.222989 
0.190413 -0.086646 -0.222642 
0.190760 -0.086904 -0.222294 
0.191221 -0.087126 -0.221952 
0.191454 -0.087420 -0.221600 
0.191801 -0.087677 -0.221252 
0.192148 -0.087935 -0.220905 
0.192609 -0.088157 -0.220562 
0.192956 -0.088414 -0.220215 
0.193303 -0.088672 -0.219868 
0.193650 -0.088930 -0.219521 
0.193996 -0.089187 -0.219173 
0.194343 -0.089445 -0.218826 
0.194804 -0.089667 -0.218483 
0.195265 -0.089888 -0.218140 
0.195726 -0.090110 -0.217798 
0.196073 -0.090368 -0.217450 
0.196534 -0.090590 -0.217108 
0.196881 -0.090848 -0.216761 
0.197228 -0.091105 -0.216413 
0.197689 -0.091327 -0.216071 
0.198150 -0.091549 -0.215728 
0.198497 -0.091807 -0.215381 
0.198844 -0.092064 -0.215033 
0.199305 -0.092286 -0.214691 
0.199652 -0.092543 -0.214343 
0.200113 -0.092765 -0.214001 
0.200460 -0.093023 -0.213653 
0.200921 -0.093245 -0.213311 
0.201382 -0.093466 -0.212968 
0.201957 -0.093653 -0.212631 
0.202304 -0.093910 -0.212284 
0.202879 -0.094096 -0.211945 
0.203340 -0.094318 -0.211603 
0.203687 -0.094576 -0.211256 
0.204148 -0.094797 -0.210913 
0.204495 -0.095055 -0.210566 
0.204956 -0.095277 -0.210223 
0.205417 -0.095499 -0.209880 
0.205878 -0.095720 -0.209538 
0.206339 -0.095942 -0.209195 
0.206686 -0.096200 -0.208848 
0.207033 -0.096458 -0.208501 
0.207494 -0.096679 -0.208158 
0.207841 -0.096937 -0.207811 
0.208188 -0.097195 -0.207464 
0.208534 -0.097452 -0.207116 
0.208881 -0.097710 -0.206769 
0.209228 -0.097968 -0.206421 
0.209575 -0.098225 -0.206074 
0.209808 -0.098519 -0.205722 
0.210155 -0.098777 -0.205375 
0.210387 -0.099070 -0.205022 
0.210620 -0.099363 -0.204670 
0.211081 -0.099585 -0.204327 
0.211314 -0.099879 -0.203975 
0.211546 -0.100172 -0.203623 
0.211893 -0.100430 -0.203276 
0.212126 -0.100723 -0.202923 
0.212359 -0.101017 -0.202571 
0.212591 -0.101310 -0.202219 
0.212824 -0.101604 -0.201866 
0.213057 -0.101898 -0.201515 
0.213404 -0.102155 -0.201168 
0.213522 -0.102485 -0.200810 
0.213755 -0.102778 -0.200458 
0.213987 -0.103071 -0.200106 
0.214220 -0.103365 -0.199754 
0.214339 -0.103695 -0.199397 
0.214571 -0.103988 -0.199044 
0.214690 -0.104317 -0.198687 
0.214923 -0.104610 -0.198335 
0.215041 -0.104940 -0.197978 
0.215274 -0.105234 -0.197626 
0.215393 -0.105563 -0.197269 
0.215511 -0.105892 -0.196912 
0.215744 -0.106186 -0.196559 
0.215977 -0.106480 -0.196208 
0.216095 -0.106809 -0.195851 
0.216328 -0.107102 -0.195498 
0.216446 -0.107432 -0.195141 
0.216679 -0.107725 -0.194789 
0.216797 -0.108054 -0.194432 
0.216916 -0.108384 -0.194075 
0.217034 -0.108713 -0.193718 
0.217153 -0.109042 -0.193361 
0.217386 -0.109336 -0.193009 
0.217618 -0.109630 -0.192656 
0.217737 -0.109959 -0.192299 
0.217855 -0.110288 -0.191942 
0.218088 -0.110582 -0.191590 
0.218207 -0.110911 -0.191233 
0.218325 -0.111240 -0.190876 
0.218330 -0.111606 -0.190514 
0.218562 -0.111899 -0.190162 
0.218567 -0.112265 -0.189800 
0.218685 -0.112594 -0.189443 
0.218690 -0.112959 -0.189082 
0.218922 -0.113253 -0.188729 
0.218927 -0.113618 -0.188368 
0.219159 -0.113911 -0.188015 
0.219278 -0.114241 -0.187658 
0.219396 -0.114570 -0.187301 
0.219629 -0.114863 -0.186949 
0.219862 -0.115157 -0.186597 
0.220094 -0.115451 -0.186244 
0.220213 -0.115780 -0.185887 
0.220331 -0.116109 -0.185530 
0.220450 -0.116439 -0.185173 
0.220454 -0.116804 -0.184812 
0.220459 -0.117169 -0.184449 
0.220577 -0.117498 -0.184092 
0.220696 -0.117828 -0.183735 
0.220814 -0.118157 -0.183378 
0.220933 -0.118486 -0.183021 
0.221051 -0.118816 -0.182664 
0.221170 -0.119145 -0.182307 
0.221288 -0.119474 -0.181950 
0.221407 -0.119804 -0.181593 
0.221525 -0.120133 -0.181236 
0.221530 -0.120499 -0.180874 
0.221648 -0.120828 -0.180517 
0.221767 -0.121157 -0.180160 
0.221771 -0.121523 -0.179799 
0.221776 -0.121888 -0.179437 
0.221780 -0.122253 -0.179075 
0.221784 -0.122619 -0.178713 
0.221789 -0.122983 -0.178351 
0.221679 -0.123384 -0.177984 
0.221683 -0.123750 -0.177623 
0.221688 -0.124115 -0.177261 
0.221692 -0.124480 -0.176899 
0.221696 -0.124846 -0.176537 
0.221815 -0.125175 -0.176180 
0.221819 -0.125540 -0.175819 
0.221938 -0.125870 -0.175462 
0.221942 -0.126235 -0.175099 
0.221946 -0.126600 -0.174738 
0.221722 -0.127037 -0.174366 
0.221727 -0.127402 -0.174004 
0.221617 -0.127803 -0.173638 
0.221507 -0.128204 -0.173271 
0.221511 -0.128569 -0.172909 
0.221516 -0.128935 -0.172547 
0.221406 -0.129336 -0.172180 
0.221296 -0.129737 -0.171814 
0.221186 -0.130138 -0.171447 
0.220963 -0.130575 -0.171076 
0.220853 -0.130976 -0.170709 
0.220743 -0.131377 -0.170342 
0.220519 -0.131814 -0.169971 
0.220181 -0.132287 -0.169595 
0.219957 -0.132724 -0.169223 
0.219504 -0.133233 -0.168842 
0.219281 -0.133670 -0.168471 
0.218828 -0.134178 -0.168089 
0.218490 -0.134651 -0.167713 
0.218038 -0.135159 -0.167331 
0.217585 -0.135668 -0.166950 
0.216448 -0.136392 -0.166540 
0.215996 -0.136900 -0.166159 
0.213945 -0.137911 -0.165710 
0.214063 -0.138240 -0.165353 
0.213839 -0.138677 -0.164982 
0.213387 -0.139186 -0.164601 
0.212821 -0.139730 -0.164215 
0.212483 -0.140204 -0.163839 
0.212030 -0.140712 -0.163457 
0.211692 -0.141185 -0.163081 
0.211126 -0.141729 -0.162695 
0.210673 -0.142238 -0.162314 
0.210221 -0.142746 -0.161932 
0.209540 -0.143327 -0.161542 
0.209088 -0.143836 -0.161161 
0.207151 -0.144810 -0.160717 
0.206585 -0.145355 -0.160331 
0.206247 -0.145827 -0.159954 
0.205680 -0.146372 -0.159568 
0.205000 -0.146953 -0.159178 
0.204776 -0.147389 -0.158806 
0.204552 -0.147826 -0.158435 
0.204670 -0.148155 -0.158078 
0.204789 -0.148485 -0.157721 
0.205021 -0.148779 -0.157369 
0.205368 -0.149036 -0.157021 
0.205715 -0.149294 -0.156674 
0.206062 -0.149552 -0.156326 
0.206295 -0.149845 -0.155974 
0.206642 -0.150103 -0.155627 
0.206989 -0.150360 -0.155280 
0.207221 -0.150654 -0.154927 
0.207568 -0.150912 -0.154580 
0.207801 -0.151205 -0.154227 
0.208034 -0.151499 -0.153876 
0.208266 -0.151792 -0.153523 
0.208499 -0.152085 -0.153171 
0.208732 -0.152379 -0.152819 
0.208964 -0.152672 -0.152467 
0.209083 -0.153002 -0.152110 
0.209201 -0.153331 -0.151752 
0.209206 -0.153697 -0.151391 
0.209324 -0.154026 -0.151034 
0.209328 -0.154391 -0.150672 
0.209333 -0.154756 -0.150310 
0.209337 -0.155122 -0.149948 
0.209113 -0.155558 -0.149576 
0.208889 -0.155995 -0.149205 
0.208551 -0.156468 -0.148829 
0.208099 -0.156977 -0.148448 
0.207646 -0.157485 -0.148066 
0.207415 -0.157923 -0.147693 
0.206926 -0.158437 -0.147305 
0.206436 -0.158951 -0.146916 
0.205825 -0.159501 -0.146520 
0.205457 -0.159978 -0.146138 
0.204968 -0.160491 -0.145749 
0.204357 -0.161042 -0.145354 
0.203502 -0.161666 -0.144946 
0.201189 -0.162733 -0.144461 
0.159109 -0.072824 -0.245363 
0.159714 -0.073006 -0.245031 
0.160562 -0.073114 -0.244711 
0.161167 -0.073296 -0.244380 
0.161893 -0.073441 -0.244055 
0.162377 -0.073660 -0.243717 
0.163103 -0.073804 -0.243391 
0.163708 -0.073986 -0.243059 
0.164434 -0.074131 -0.242734 
0.164917 -0.074350 -0.242396 
0.165401 -0.074568 -0.242058 
0.165884 -0.074787 -0.241720 
0.166367 -0.075006 -0.241382 
0.167215 -0.075113 -0.241063 
0.167820 -0.075295 -0.240730 
0.168425 -0.075477 -0.240399 
0.169151 -0.075621 -0.240073 
0.169756 -0.075804 -0.239742 
0.170118 -0.076059 -0.239398 
0.170479 -0.076314 -0.239053 
0.170841 -0.076570 -0.238709 
0.171203 -0.076826 -0.238364 
0.171564 -0.077081 -0.238020 
0.172048 -0.077300 -0.237681 
0.172531 -0.077518 -0.237343 
0.173865 -0.077479 -0.237050 
0.174592 -0.077624 -0.236725 
0.175561 -0.077695 -0.236411 
0.176409 -0.077803 -0.236092 
0.177136 -0.077948 -0.235767 
0.177740 -0.078129 -0.235435 
0.178224 -0.078348 -0.235097 
0.178585 -0.078603 -0.234753 
0.179068 -0.078822 -0.234414 
0.179301 -0.079115 -0.234062 
0.179534 -0.079409 -0.233710 
0.179881 -0.079666 -0.233362 
0.180113 -0.079960 -0.233011 
0.180346 -0.080254 -0.232658 
0.180579 -0.080547 -0.232306 
0.180697 -0.080876 -0.231949 
0.180930 -0.081170 -0.231597 
0.180934 -0.081535 -0.231235 
0.181167 -0.081829 -0.230883 
0.181514 -0.082086 -0.230535 
0.181746 -0.082379 -0.230182 
0.181979 -0.082673 -0.229831 
0.182212 -0.082967 -0.229478 
0.182559 -0.083224 -0.229131 
0.182791 -0.083518 -0.228779 
0.183367 -0.083703 -0.228440 
0.183942 -0.083889 -0.228102 
0.184289 -0.084147 -0.227755 
0.185320 -0.084189 -0.227436 
0.185667 -0.084446 -0.227089 
0.186242 -0.084632 -0.226751 
0.186703 -0.084854 -0.226408 
0.187164 -0.085075 -0.226066 
0.187397 -0.085369 -0.225713 
0.187858 -0.085590 -0.225370 
0.188090 -0.085884 -0.225018 
0.188437 -0.086141 -0.224671 
0.188784 -0.086399 -0.224323 
0.189245 -0.086620 -0.223980 
0.189592 -0.086878 -0.223633 
0.189939 -0.087135 -0.223285 
0.190286 -0.087393 -0.222938 
0.190633 -0.087651 -0.222591 
0.190979 -0.087908 -0.222243 
0.191326 -0.088166 -0.221896 
0.191673 -0.088423 -0.221548 
0.192020 -0.088681 -0.221201 
0.192481 -0.088903 -0.220858 
0.192828 -0.089160 -0.220511 
0.193174 -0.089418 -0.220163 
0.193521 -0.089675 -0.219816 
0.193868 -0.089933 -0.219468 
0.194215 -0.090190 -0.219121 
0.194676 -0.090412 -0.218778 
0.195251 -0.090598 -0.218440 
0.195712 -0.090819 -0.218097 
0.196173 -0.091041 -0.217755 
0.196634 -0.091263 -0.217412 
0.196981 -0.091520 -0.217064 
0.197442 -0.091742 -0.216721 
0.197903 -0.091963 -0.216379 
0.198250 -0.092221 -0.216032 
0.198710 -0.092442 -0.215688 
0.199286 -0.092629 -0.215351 
0.199747 -0.092850 -0.215008 
0.200322 -0.093036 -0.214670 
0.200783 -0.093258 -0.214327 
0.201244 -0.093479 -0.213984 
0.201705 -0.093700 -0.213641 
0.202166 -0.093922 -0.213299 
0.202741 -0.094108 -0.212961 
0.203088 -0.094366 -0.212614 
0.203549 -0.094587 -0.212271 
0.204010 -0.094809 -0.211928 
0.204471 -0.095031 -0.211586 
0.204817 -0.095288 -0.211238 
0.205278 -0.095510 -0.210895 
0.205739 -0.095731 -0.210552 
0.206086 -0.095989 -0.210205 
0.206547 -0.096210 -0.209862 
0.207008 -0.096432 -0.209519 
0.207355 -0.096690 -0.209172 
0.207702 -0.096948 -0.208825 
0.208163 -0.097169 -0.208482 
0.208396 -0.097463 -0.208130 
0.208742 -0.097720 -0.207782 
0.209089 -0.097978 -0.207435 
0.209436 -0.098235 -0.207088 
0.209783 -0.098493 -0.206740 
0.210130 -0.098750 -0.206392 
0.210476 -0.099008 -0.206045 
0.210595 -0.099337 -0.205687 
0.210942 -0.099595 -0.205340 
0.211289 -0.099852 -0.204992 
0.211521 -0.100146 -0.204641 
0.211754 -0.100439 -0.204288 
0.212101 -0.100697 -0.203941 
0.212334 -0.100990 -0.203588 
0.212566 -0.101283 -0.203236 
0.212913 -0.101541 -0.202889 
0.213032 -0.101871 -0.202532 
0.213264 -0.102164 -0.202179 
0.213497 -0.102457 -0.201827 
0.213844 -0.102715 -0.201480 
0.214076 -0.103008 -0.201127 
0.214309 -0.103302 -0.200775 
0.214428 -0.103632 -0.200418 
0.214546 -0.103961 -0.200061 
0.214779 -0.104254 -0.199709 
0.215012 -0.104547 -0.199356 
0.215130 -0.104877 -0.198999 
0.215363 -0.105170 -0.198647 
0.215481 -0.105499 -0.198290 
0.215714 -0.105793 -0.197938 
0.215833 -0.106123 -0.197581 
0.216065 -0.106416 -0.197229 
0.216184 -0.106745 -0.196872 
0.216416 -0.107039 -0.196519 
0.216649 -0.107332 -0.196167 
0.216768 -0.107662 -0.195810 
0.216886 -0.107991 -0.195453 
0.217005 -0.108321 -0.195096 
0.217123 -0.108650 -0.194739 
0.217356 -0.108943 -0.194387 
0.217474 -0.109273 -0.194030 
0.217593 -0.109602 -0.193673 
0.217711 -0.109931 -0.193316 
0.217944 -0.110225 -0.192963 
0.218063 -0.110554 -0.192606 
0.218181 -0.110883 -0.192249 
0.218414 -0.111177 -0.191897 
0.218418 -0.111542 -0.191535 
0.218537 -0.111871 -0.191178 
0.218655 -0.112201 -0.190821 
0.218774 -0.112530 -0.190464 
0.218778 -0.112896 -0.190103 
0.218783 -0.113261 -0.189741 
0.218901 -0.113590 -0.189384 
0.218905 -0.113955 -0.189022 
0.219024 -0.114285 -0.188665 
0.219142 -0.114614 -0.188308 
0.219261 -0.114943 -0.187951 
0.219494 -0.115237 -0.187599 
0.219726 -0.115531 -0.187246 
0.219959 -0.115824 -0.186894 
0.220078 -0.116153 -0.186537 
0.220196 -0.116483 -0.186180 
0.220315 -0.116812 -0.185823 
0.220319 -0.117177 -0.185461 
0.220324 -0.117543 -0.185100 
0.220442 -0.117872 -0.184743 
0.220446 -0.118237 -0.184380 
0.220565 -0.118566 -0.184023 
0.220798 -0.118860 -0.183671 
0.220916 -0.119190 -0.183314 
0.221035 -0.119519 -0.182957 
0.221153 -0.119848 -0.182600 
0.221272 -0.120178 -0.182243 
0.221390 -0.120507 -0.181886 
0.221509 -0.120837 -0.181529 
0.221513 -0.121201 -0.181167 
0.221632 -0.121531 -0.180810 
0.221636 -0.121896 -0.180448 
0.221755 -0.122226 -0.180091 
0.221759 -0.122591 -0.179730 
0.221763 -0.122956 -0.179367 
0.221768 -0.123321 -0.179006 
0.221658 -0.123723 -0.178640 
0.221548 -0.124124 -0.178273 
0.221553 -0.124489 -0.177911 
0.221557 -0.124854 -0.177549 
0.221447 -0.125256 -0.177183 
0.221452 -0.125621 -0.176821 
0.221570 -0.125950 -0.176464 
0.221689 -0.126280 -0.176107 
0.221693 -0.126645 -0.175745 
0.221811 -0.126974 -0.175388 
0.221587 -0.127411 -0.175016 
0.221592 -0.127776 -0.174655 
0.221596 -0.128142 -0.174293 
0.221487 -0.128543 -0.173926 
0.221263 -0.128980 -0.173555 
0.221267 -0.129345 -0.173193 
0.221271 -0.129711 -0.172832 
0.221162 -0.130112 -0.172465 
0.221052 -0.130513 -0.172099 
0.220828 -0.130950 -0.171727 
0.220832 -0.131315 -0.171365 
0.220723 -0.131717 -0.170999 
0.220499 -0.132154 -0.170628 
0.220161 -0.132627 -0.170252 
0.219822 -0.133099 -0.169875 
0.219484 -0.133572 -0.169499 
0.219146 -0.134046 -0.169123 
0.218808 -0.134519 -0.168747 
0.218356 -0.135027 -0.168366 
0.217790 -0.135573 -0.167981 
0.217337 -0.136081 -0.167599 
0.216543 -0.136698 -0.167204 
0.215634 -0.137350 -0.166804 
0.213698 -0.138326 -0.166361 
0.213816 -0.138656 -0.166004 
0.213592 -0.139093 -0.165633 
0.213254 -0.139566 -0.165257 
0.212688 -0.140110 -0.164871 
0.212464 -0.140547 -0.164500 
0.211897 -0.141092 -0.164114 
0.211674 -0.141530 -0.163743 
0.211107 -0.142074 -0.163357 
0.210769 -0.142548 -0.162982 
0.210089 -0.143128 -0.162590 
0.209637 -0.143637 -0.162210 
0.209070 -0.144181 -0.161824 
0.207134 -0.145157 -0.161381 
0.206568 -0.145702 -0.160996 
0.206115 -0.146211 -0.160615 
0.205549 -0.146756 -0.160229 
0.205097 -0.147265 -0.159848 
0.204644 -0.147774 -0.159467 
0.204535 -0.148175 -0.159101 
0.204539 -0.148540 -0.158739 
0.204772 -0.148833 -0.158387 
0.205004 -0.149127 -0.158035 
0.205351 -0.149384 -0.157687 
0.205698 -0.149642 -0.157340 
0.206045 -0.149899 -0.156992 
0.206392 -0.150157 -0.156645 
0.206624 -0.150451 -0.156292 
0.206971 -0.150708 -0.155945 
0.207318 -0.150966 -0.155598 
0.207665 -0.151223 -0.155250 
0.207898 -0.151517 -0.154897 
0.208130 -0.151811 -0.154546 
0.208363 -0.152104 -0.154193 
0.208596 -0.152397 -0.153841 
0.208828 -0.152691 -0.153489 
0.208947 -0.153020 -0.153132 
0.209180 -0.153314 -0.152779 
0.209184 -0.153679 -0.152418 
0.209417 -0.153972 -0.152065 
0.209421 -0.154338 -0.151704 
0.209425 -0.154703 -0.151341 
0.209544 -0.155032 -0.150984 
0.209434 -0.155434 -0.150618 
0.209324 -0.155834 -0.150251 
0.209100 -0.156271 -0.149880 
0.208762 -0.156745 -0.149504 
0.208424 -0.157218 -0.149128 
0.207858 -0.157762 -0.148742 
0.207512 -0.158237 -0.148365 
0.207023 -0.158750 -0.147976 
0.206655 -0.159228 -0.147594 
0.206287 -0.159704 -0.147211 
0.205798 -0.160218 -0.146823 
0.205187 -0.160769 -0.146428 
0.204698 -0.161283 -0.146039 
0.203844 -0.161907 -0.145632 
0.202504 -0.162680 -0.145199 
0.200312 -0.163710 -0.144722 
0.158842 -0.073621 -0.245659 
0.159446 -0.073803 -0.245327 
0.160173 -0.073948 -0.245002 
0.160899 -0.074092 -0.244676 
0.161625 -0.074237 -0.244350 
0.162109 -0.074455 -0.244012 
0.162835 -0.074600 -0.243686 
0.163440 -0.074782 -0.243354 
0.164166 -0.074926 -0.243028 
0.164771 -0.075108 -0.242696 
0.165254 -0.075326 -0.242358 
0.165859 -0.075508 -0.242026 
0.166220 -0.075763 -0.241681 
0.167068 -0.075871 -0.241362 
0.167794 -0.076015 -0.241036 
0.168277 -0.076234 -0.240698 
0.169004 -0.076379 -0.240373 
0.169487 -0.076597 -0.240034 
0.169849 -0.076852 -0.239690 
0.170210 -0.077107 -0.239345 
0.170572 -0.077363 -0.239001 
0.170812 -0.077655 -0.238650 
0.171295 -0.077874 -0.238312 
0.171778 -0.078093 -0.237973 
0.172505 -0.078237 -0.237647 
0.173596 -0.078271 -0.237340 
0.174687 -0.078305 -0.237034 
0.175291 -0.078486 -0.236702 
0.176139 -0.078594 -0.236382 
0.176866 -0.078739 -0.236057 
0.177470 -0.078920 -0.235725 
0.177953 -0.079139 -0.235387 
0.178315 -0.079394 -0.235042 
0.178798 -0.079612 -0.234704 
0.179038 -0.079905 -0.234353 
0.179400 -0.080160 -0.234009 
0.179640 -0.080453 -0.233658 
0.179873 -0.080746 -0.233305 
0.180105 -0.081039 -0.232953 
0.180224 -0.081369 -0.232596 
0.180457 -0.081662 -0.232244 
0.180461 -0.082027 -0.231882 
0.180694 -0.082321 -0.231530 
0.180926 -0.082615 -0.231177 
0.181387 -0.082836 -0.230835 
0.181620 -0.083129 -0.230482 
0.181852 -0.083423 -0.230130 
0.182085 -0.083716 -0.229777 
0.182432 -0.083974 -0.229430 
0.182665 -0.084267 -0.229078 
0.183011 -0.084524 -0.228730 
0.183586 -0.084710 -0.228392 
0.183933 -0.084968 -0.228045 
0.184622 -0.085117 -0.227711 
0.185426 -0.085231 -0.227382 
0.186001 -0.085416 -0.227044 
0.186576 -0.085602 -0.226706 
0.186808 -0.085895 -0.226353 
0.187269 -0.086117 -0.226011 
0.187502 -0.086410 -0.225658 
0.187963 -0.086631 -0.225315 
0.188310 -0.086889 -0.224968 
0.188656 -0.087146 -0.224620 
0.189003 -0.087404 -0.224273 
0.189350 -0.087661 -0.223925 
0.189697 -0.087919 -0.223578 
0.190044 -0.088176 -0.223230 
0.190505 -0.088398 -0.222887 
0.190851 -0.088655 -0.222539 
0.191198 -0.088913 -0.222192 
0.191545 -0.089170 -0.221844 
0.191892 -0.089427 -0.221496 
0.192239 -0.089685 -0.221149 
0.192585 -0.089942 -0.220801 
0.192932 -0.090200 -0.220454 
0.193393 -0.090421 -0.220111 
0.193740 -0.090679 -0.219763 
0.194315 -0.090864 -0.219425 
0.194776 -0.091085 -0.219082 
0.195237 -0.091307 -0.218739 
0.195812 -0.091493 -0.218401 
0.196387 -0.091678 -0.218063 
0.196734 -0.091935 -0.217715 
0.197309 -0.092121 -0.217377 
0.197884 -0.092307 -0.217039 
0.198345 -0.092528 -0.216696 
0.198920 -0.092713 -0.216358 
0.199609 -0.092863 -0.216024 
0.200070 -0.093085 -0.215682 
0.200531 -0.093306 -0.215339 
0.201220 -0.093456 -0.215005 
0.201567 -0.093713 -0.214658 
0.202142 -0.093899 -0.214319 
0.202489 -0.094156 -0.213972 
0.202949 -0.094377 -0.213629 
0.203410 -0.094599 -0.213286 
0.203871 -0.094821 -0.212944 
0.204332 -0.095042 -0.212600 
0.204793 -0.095264 -0.212258 
0.205140 -0.095521 -0.211910 
0.205601 -0.095743 -0.211567 
0.206062 -0.095964 -0.211224 
0.206409 -0.096221 -0.210877 
0.206870 -0.096443 -0.210534 
0.207216 -0.096700 -0.210186 
0.207677 -0.096922 -0.209843 
0.208024 -0.097179 -0.209496 
0.208371 -0.097437 -0.209148 
0.208832 -0.097658 -0.208805 
0.209064 -0.097951 -0.208453 
0.209411 -0.098209 -0.208105 
0.209758 -0.098466 -0.207757 
0.209991 -0.098760 -0.207406 
0.210337 -0.099017 -0.207058 
0.210684 -0.099274 -0.206710 
0.210917 -0.099568 -0.206358 
0.211264 -0.099826 -0.206010 
0.211496 -0.100119 -0.205658 
0.211729 -0.100413 -0.205306 
0.211962 -0.100706 -0.204953 
0.212308 -0.100963 -0.204606 
0.212655 -0.101221 -0.204258 
0.212774 -0.101550 -0.203901 
0.213121 -0.101808 -0.203553 
0.213353 -0.102101 -0.203201 
0.213472 -0.102430 -0.202844 
0.213704 -0.102723 -0.202492 
0.214051 -0.102981 -0.202144 
0.214284 -0.103274 -0.201792 
0.214516 -0.103568 -0.201439 
0.214749 -0.103862 -0.201088 
0.214868 -0.104191 -0.200731 
0.214986 -0.104520 -0.200374 
0.215219 -0.104814 -0.200021 
0.215337 -0.105143 -0.199664 
0.215570 -0.105436 -0.199312 
0.215803 -0.105730 -0.198959 
0.215921 -0.106059 -0.198602 
0.216154 -0.106352 -0.198250 
0.216272 -0.106682 -0.197893 
0.216505 -0.106975 -0.197541 
0.216624 -0.107305 -0.197184 
0.216856 -0.107598 -0.196831 
0.216975 -0.107927 -0.196474 
0.217207 -0.108221 -0.196122 
0.217326 -0.108550 -0.195765 
0.217330 -0.108916 -0.195403 
0.217563 -0.109209 -0.195051 
0.217682 -0.109538 -0.194694 
0.217800 -0.109868 -0.194337 
0.217919 -0.110197 -0.193980 
0.218151 -0.110490 -0.193627 
0.218270 -0.110820 -0.193270 
0.218388 -0.111149 -0.192913 
0.218507 -0.111478 -0.192556 
0.218625 -0.111808 -0.192199 
0.218744 -0.112137 -0.191842 
0.218748 -0.112503 -0.191481 
0.218753 -0.112868 -0.191119 
0.218871 -0.113197 -0.190762 
0.218876 -0.113563 -0.190400 
0.218880 -0.113928 -0.190038 
0.218999 -0.114257 -0.189681 
0.219003 -0.114622 -0.189319 
0.219007 -0.114988 -0.188958 
0.219126 -0.115317 -0.188601 
0.219244 -0.115647 -0.188244 
0.219477 -0.115940 -0.187891 
0.219710 -0.116233 -0.187539 
0.219943 -0.116527 -0.187187 
0.220061 -0.116856 -0.186830 
0.220294 -0.117150 -0.186478 
0.220298 -0.117515 -0.186116 
0.220302 -0.117880 -0.185754 
0.220307 -0.118245 -0.185392 
0.220425 -0.118575 -0.185035 
0.220430 -0.118940 -0.184673 
0.220548 -0.119270 -0.184316 
0.220667 -0.119599 -0.183959 
0.220785 -0.119928 -0.183602 
0.220904 -0.120258 -0.183245 
0.221022 -0.120587 -0.182888 
0.221255 -0.120880 -0.182536 
0.221259 -0.121246 -0.182174 
0.221378 -0.121575 -0.181817 
0.221496 -0.121905 -0.181460 
0.221615 -0.122234 -0.181103 
0.221619 -0.122599 -0.180742 
0.221624 -0.122965 -0.180380 
0.221628 -0.123330 -0.180018 
0.221633 -0.123695 -0.179656 
0.221637 -0.124061 -0.179295 
0.221413 -0.124498 -0.178923 
0.221418 -0.124863 -0.178562 
0.221308 -0.125265 -0.178195 
0.221312 -0.125630 -0.177833 
0.221202 -0.126031 -0.177467 
0.221321 -0.126360 -0.177110 
0.221325 -0.126726 -0.176748 
0.221444 -0.127055 -0.176391 
0.221563 -0.127385 -0.176034 
0.221453 -0.127786 -0.175667 
0.221343 -0.128187 -0.175301 
0.221347 -0.128553 -0.174940 
0.221238 -0.128954 -0.174573 
0.221128 -0.129355 -0.174207 
0.221132 -0.129721 -0.173845 
0.221137 -0.130085 -0.173483 
0.220913 -0.130523 -0.173112 
0.220803 -0.130924 -0.172745 
0.220807 -0.131289 -0.172384 
0.220584 -0.131726 -0.172012 
0.220474 -0.132128 -0.171646 
0.220364 -0.132530 -0.171280 
0.220140 -0.132967 -0.170908 
0.219802 -0.133440 -0.170532 
0.219464 -0.133913 -0.170156 
0.219012 -0.134422 -0.169776 
0.218674 -0.134895 -0.169400 
0.218222 -0.135404 -0.169019 
0.217770 -0.135914 -0.168639 
0.217089 -0.136494 -0.168248 
0.216295 -0.137112 -0.167854 
0.215044 -0.137873 -0.167440 
0.213565 -0.138705 -0.167017 
0.213455 -0.139107 -0.166651 
0.213345 -0.139508 -0.166284 
0.213007 -0.139981 -0.165908 
0.212783 -0.140419 -0.165538 
0.212331 -0.140928 -0.165157 
0.211993 -0.141401 -0.164781 
0.211541 -0.141910 -0.164401 
0.211203 -0.142383 -0.164025 
0.210637 -0.142929 -0.163639 
0.210071 -0.143473 -0.163254 
0.209618 -0.143983 -0.162873 
0.209052 -0.144528 -0.162488 
0.207345 -0.145432 -0.162055 
0.206664 -0.146014 -0.161665 
0.205984 -0.146595 -0.161275 
0.205532 -0.147104 -0.160895 
0.204966 -0.147649 -0.160509 
0.204513 -0.148158 -0.160129 
0.204518 -0.148524 -0.159767 
0.204522 -0.148889 -0.159405 
0.204641 -0.149218 -0.159048 
0.204988 -0.149476 -0.158701 
0.205334 -0.149733 -0.158353 
0.205681 -0.149991 -0.158006 
0.206028 -0.150248 -0.157658 
0.206375 -0.150506 -0.157311 
0.206607 -0.150799 -0.156958 
0.207068 -0.151020 -0.156615 
0.207415 -0.151278 -0.156268 
