ply
format ascii 1.0
comment created by MATLAB ply_write
element vertex 1587
property float x
property float y
property float z
end_header
-0.057576 -0.144285 0.013249 
-0.057831 -0.144188 0.012814 
-0.058188 -0.144041 0.012416 
-0.058443 -0.143944 0.011980 
-0.058800 -0.143797 0.011582 
-0.059158 -0.143650 0.011184 
-0.059413 -0.143553 0.010748 
-0.059872 -0.143356 0.010388 
-0.060229 -0.143209 0.009990 
-0.060587 -0.143061 0.009592 
-0.060944 -0.142914 0.009194 
-0.061301 -0.142767 0.008796 
-0.061658 -0.142620 0.008399 
-0.062015 -0.142473 0.008001 
-0.062577 -0.142226 0.007679 
-0.063036 -0.142029 0.007319 
-0.063802 -0.141681 0.007072 
-0.064262 -0.141484 0.006712 
-0.064823 -0.141237 0.006390 
-0.065589 -0.140889 0.006144 
-0.066253 -0.140592 0.005860 
-0.066917 -0.140295 0.005576 
-0.067580 -0.139997 0.005292 
-0.068449 -0.139600 0.005083 
-0.069215 -0.139252 0.004837 
-0.073251 -0.137302 0.005804 
-0.074221 -0.136854 0.005634 
-0.075702 -0.136156 0.005653 
-0.076979 -0.135558 0.005596 
-0.077847 -0.135161 0.005388 
-0.078409 -0.134913 0.005066 
-0.078868 -0.134716 0.004706 
-0.079430 -0.134469 0.004384 
-0.080094 -0.134172 0.004100 
-0.080451 -0.134025 0.003702 
-0.081012 -0.133777 0.003380 
-0.081370 -0.133630 0.002982 
-0.081625 -0.133533 0.002546 
-0.081982 -0.133386 0.002148 
-0.082135 -0.133339 0.001674 
-0.082390 -0.133242 0.001238 
-0.082543 -0.133195 0.000765 
-0.082593 -0.133199 0.000253 
-0.082644 -0.133202 -0.000259 
-0.082592 -0.133255 -0.000808 
-0.082541 -0.133308 -0.001358 
-0.082489 -0.133362 -0.001908 
-0.082438 -0.133415 -0.002457 
-0.082182 -0.133569 -0.003083 
-0.082028 -0.133672 -0.003670 
-0.081874 -0.133775 -0.004258 
-0.081414 -0.134029 -0.004959 
-0.081056 -0.134233 -0.005622 
-0.080289 -0.134636 -0.006437 
-0.079726 -0.134940 -0.007176 
-0.078857 -0.135394 -0.008029 
-0.078499 -0.135598 -0.008693 
-0.078039 -0.135852 -0.009394 
-0.077578 -0.136105 -0.010095 
-0.077527 -0.136159 -0.010645 
-0.077271 -0.136312 -0.011270 
-0.077015 -0.136466 -0.011896 
-0.076963 -0.136519 -0.012445 
-0.076809 -0.136622 -0.013033 
-0.076758 -0.136676 -0.013583 
-0.076706 -0.136729 -0.014132 
-0.076655 -0.136782 -0.014682 
-0.076603 -0.136835 -0.015231 
-0.076654 -0.136839 -0.015743 
-0.076704 -0.136842 -0.016255 
-0.076755 -0.136845 -0.016766 
-0.076908 -0.136798 -0.017240 
-0.076958 -0.136801 -0.017752 
-0.077009 -0.136805 -0.018264 
-0.077060 -0.136808 -0.018775 
-0.077110 -0.136811 -0.019287 
-0.077161 -0.136814 -0.019799 
-0.077109 -0.136868 -0.020348 
-0.077058 -0.136921 -0.020898 
-0.076904 -0.137024 -0.021485 
-0.076648 -0.137178 -0.022111 
-0.076290 -0.137381 -0.022774 
-0.075932 -0.137585 -0.023437 
-0.075471 -0.137839 -0.024139 
-0.075113 -0.138042 -0.024802 
-0.074857 -0.138196 -0.025428 
0.010738 -0.172204 0.101114 
0.009164 -0.171484 0.101165 
0.008902 -0.171385 0.100732 
0.008202 -0.171079 0.100460 
0.007612 -0.170825 0.100148 
-0.003909 -0.165389 0.103874 
-0.005592 -0.164616 0.103966 
-0.005963 -0.164466 0.103573 
-0.008740 -0.163175 0.104068 
-0.009986 -0.162610 0.103998 
-0.011341 -0.161993 0.103969 
-0.012150 -0.161635 0.103737 
-0.013614 -0.160966 0.103748 
-0.014598 -0.160515 0.103583 
-0.015466 -0.160117 0.103374 
-0.016130 -0.159819 0.103090 
-0.016283 -0.159772 0.102616 
-0.020726 -0.157619 0.103735 
-0.021798 -0.157120 0.103603 
-0.023687 -0.156221 0.103773 
-0.024555 -0.155823 0.103565 
-0.025525 -0.155375 0.103395 
-0.026087 -0.155127 0.103072 
-0.026750 -0.154829 0.102788 
-0.027312 -0.154582 0.102466 
-0.028997 -0.153783 0.102561 
-0.030580 -0.153033 0.102618 
-0.031550 -0.152585 0.102448 
-0.032316 -0.152237 0.102201 
-0.033081 -0.151889 0.101955 
-0.033745 -0.151592 0.101671 
-0.034306 -0.151344 0.101349 
-0.034868 -0.151097 0.101027 
-0.035429 -0.150849 0.100705 
-0.035888 -0.150652 0.100345 
-0.036450 -0.150404 0.100023 
-0.037011 -0.150157 0.099700 
-0.037471 -0.149959 0.099340 
-0.038032 -0.149712 0.099018 
-0.038593 -0.149464 0.098696 
-0.038950 -0.149317 0.098298 
-0.039512 -0.149070 0.097976 
-0.039971 -0.148872 0.097616 
-0.040533 -0.148625 0.097294 
-0.040992 -0.148427 0.096934 
-0.041553 -0.148180 0.096612 
-0.041910 -0.148033 0.096214 
-0.042268 -0.147885 0.095816 
-0.042727 -0.147688 0.095456 
-0.043084 -0.147541 0.095058 
-0.043441 -0.147394 0.094660 
-0.043798 -0.147246 0.094262 
-0.044053 -0.147149 0.093826 
-0.044410 -0.147002 0.093428 
-0.044767 -0.146855 0.093031 
-0.045022 -0.146758 0.092595 
-0.045380 -0.146611 0.092197 
-0.045839 -0.146413 0.091837 
-0.046298 -0.146216 0.091477 
-0.047064 -0.145868 0.091230 
-0.048034 -0.145420 0.091060 
-0.048289 -0.145323 0.090624 
-0.048646 -0.145175 0.090226 
-0.049003 -0.145028 0.089828 
-0.049360 -0.144881 0.089430 
-0.049615 -0.144784 0.088994 
-0.049870 -0.144687 0.088559 
-0.050125 -0.144590 0.088123 
-0.050380 -0.144493 0.087687 
-0.050737 -0.144346 0.087289 
-0.051094 -0.144198 0.086891 
-0.051349 -0.144101 0.086455 
-0.051604 -0.144004 0.086019 
-0.051961 -0.143857 0.085621 
-0.052216 -0.143760 0.085186 
-0.052471 -0.143663 0.084750 
-0.052930 -0.143466 0.084390 
-0.053288 -0.143318 0.083992 
-0.053747 -0.143121 0.083632 
-0.054206 -0.142924 0.083272 
-0.054665 -0.142726 0.082912 
-0.055023 -0.142579 0.082514 
-0.055380 -0.142432 0.082116 
-0.055839 -0.142235 0.081756 
-0.056094 -0.142138 0.081320 
-0.056349 -0.142040 0.080884 
-0.056604 -0.141943 0.080448 
-0.056859 -0.141846 0.080013 
-0.057114 -0.141749 0.079577 
-0.057267 -0.141702 0.079103 
-0.057419 -0.141656 0.078629 
-0.057674 -0.141559 0.078193 
-0.057929 -0.141461 0.077757 
-0.058082 -0.141415 0.077284 
-0.058439 -0.141267 0.076886 
-0.058694 -0.141170 0.076450 
-0.059051 -0.141023 0.076052 
-0.059204 -0.140976 0.075578 
-0.059561 -0.140829 0.075180 
-0.059816 -0.140732 0.074744 
-0.060071 -0.140635 0.074309 
-0.060224 -0.140588 0.073835 
-0.060275 -0.140591 0.073323 
-0.060428 -0.140544 0.072849 
-0.060580 -0.140498 0.072376 
-0.060835 -0.140401 0.071940 
-0.061090 -0.140303 0.071504 
-0.061141 -0.140307 0.070992 
-0.061396 -0.140210 0.070556 
-0.061549 -0.140163 0.070083 
-0.061599 -0.140166 0.069571 
-0.061752 -0.140119 0.069097 
-0.061803 -0.140122 0.068586 
-0.061853 -0.140126 0.068074 
-0.061904 -0.140129 0.067562 
-0.061955 -0.140132 0.067051 
-0.062005 -0.140136 0.066539 
-0.062056 -0.140139 0.066027 
-0.062107 -0.140142 0.065515 
-0.062157 -0.140145 0.065004 
-0.062106 -0.140199 0.064454 
-0.062157 -0.140202 0.063943 
-0.062105 -0.140256 0.063393 
-0.062258 -0.140209 0.062919 
-0.062309 -0.140212 0.062408 
-0.062359 -0.140215 0.061896 
-0.062410 -0.140218 0.061384 
-0.062563 -0.140172 0.060910 
-0.062511 -0.140225 0.060361 
-0.062562 -0.140228 0.059849 
-0.062613 -0.140232 0.059337 
-0.062561 -0.140285 0.058788 
-0.062612 -0.140288 0.058276 
-0.062662 -0.140292 0.057765 
-0.062611 -0.140345 0.057215 
-0.062662 -0.140348 0.056703 
-0.062712 -0.140352 0.056192 
-0.062559 -0.140455 0.055604 
-0.062507 -0.140508 0.055055 
-0.062558 -0.140512 0.054543 
-0.062506 -0.140565 0.053993 
-0.062455 -0.140619 0.053444 
-0.062403 -0.140672 0.052894 
-0.062250 -0.140776 0.052307 
-0.062096 -0.140879 0.051719 
-0.062045 -0.140933 0.051169 
-0.061891 -0.141036 0.050582 
-0.061737 -0.141140 0.049994 
-0.061584 -0.141244 0.049407 
-0.061430 -0.141347 0.048819 
-0.061276 -0.141451 0.048232 
-0.061021 -0.141605 0.047607 
-0.060867 -0.141708 0.047019 
-0.060713 -0.141812 0.046432 
-0.060560 -0.141915 0.045844 
-0.060202 -0.142119 0.045181 
-0.060150 -0.142173 0.044631 
-0.059894 -0.142326 0.044006 
-0.059639 -0.142480 0.043380 
-0.059383 -0.142634 0.042755 
-0.059127 -0.142788 0.042129 
-0.058973 -0.142891 0.041542 
-0.058615 -0.143095 0.040879 
-0.058360 -0.143249 0.040253 
-0.058104 -0.143403 0.039628 
-0.057848 -0.143556 0.039002 
-0.057694 -0.143660 0.038415 
-0.057234 -0.143914 0.037714 
-0.057081 -0.144018 0.037126 
-0.056723 -0.144222 0.036463 
-0.056467 -0.144375 0.035837 
-0.056313 -0.144479 0.035250 
-0.056160 -0.144583 0.034662 
-0.056108 -0.144636 0.034113 
-0.055852 -0.144790 0.033487 
-0.055699 -0.144893 0.032900 
-0.055749 -0.144897 0.032388 
-0.055494 -0.145051 0.031763 
-0.055544 -0.145054 0.031251 
-0.055493 -0.145107 0.030701 
-0.055543 -0.145110 0.030190 
-0.055594 -0.145114 0.029678 
-0.055645 -0.145117 0.029166 
-0.055695 -0.145120 0.028655 
-0.055848 -0.145073 0.028181 
-0.055899 -0.145077 0.027669 
-0.055949 -0.145080 0.027158 
-0.056102 -0.145033 0.026684 
-0.056153 -0.145036 0.026172 
-0.056204 -0.145040 0.025661 
-0.056254 -0.145043 0.025149 
-0.056407 -0.144996 0.024675 
-0.056458 -0.144999 0.024163 
-0.056509 -0.145003 0.023652 
-0.056559 -0.145006 0.023140 
-0.056610 -0.145009 0.022628 
-0.056660 -0.145012 0.022117 
-0.056609 -0.145066 0.021567 
-0.056660 -0.145069 0.021055 
-0.056710 -0.145072 0.020544 
-0.056659 -0.145126 0.019994 
-0.056709 -0.145129 0.019483 
-0.056760 -0.145132 0.018971 
-0.056811 -0.145136 0.018459 
-0.056759 -0.145189 0.017910 
-0.056810 -0.145192 0.017398 
-0.056861 -0.145196 0.016886 
-0.056911 -0.145199 0.016375 
-0.056962 -0.145202 0.015863 
-0.057115 -0.145155 0.015389 
-0.057165 -0.145159 0.014877 
-0.057420 -0.145062 0.014442 
-0.057573 -0.145015 0.013968 
-0.057828 -0.144918 0.013532 
-0.058083 -0.144821 0.013096 
-0.058440 -0.144673 0.012698 
-0.058797 -0.144526 0.012300 
-0.059052 -0.144429 0.011864 
-0.059512 -0.144232 0.011504 
-0.059767 -0.144135 0.011069 
-0.060124 -0.143987 0.010671 
-0.060583 -0.143790 0.010311 
-0.060838 -0.143693 0.009875 
-0.061297 -0.143496 0.009515 
-0.061654 -0.143348 0.009117 
-0.062114 -0.143151 0.008757 
-0.062675 -0.142904 0.008435 
-0.063134 -0.142706 0.008075 
-0.063594 -0.142509 0.007715 
-0.064257 -0.142211 0.007430 
-0.064716 -0.142014 0.007070 
-0.065278 -0.141766 0.006748 
-0.065839 -0.141519 0.006426 
-0.066605 -0.141171 0.006180 
-0.067166 -0.140923 0.005858 
-0.067830 -0.140626 0.005574 
-0.068391 -0.140378 0.005252 
-0.069566 -0.139829 0.005157 
-0.069821 -0.139733 0.004721 
-0.073345 -0.138030 0.005499 
-0.074519 -0.137482 0.005404 
-0.075591 -0.136983 0.005271 
-0.076765 -0.136435 0.005177 
-0.077531 -0.136087 0.004931 
-0.077990 -0.135890 0.004570 
-0.078552 -0.135642 0.004248 
-0.079011 -0.135445 0.003888 
-0.079879 -0.135047 0.003680 
-0.080236 -0.134900 0.003282 
-0.080593 -0.134752 0.002884 
-0.081053 -0.134555 0.002524 
-0.081410 -0.134408 0.002126 
-0.081665 -0.134311 0.001690 
-0.081817 -0.134264 0.001217 
-0.081970 -0.134217 0.000743 
-0.082225 -0.134120 0.000307 
-0.082174 -0.134173 -0.000243 
-0.082122 -0.134227 -0.000792 
-0.082173 -0.134230 -0.001304 
-0.082224 -0.134233 -0.001816 
-0.082070 -0.134337 -0.002403 
-0.082018 -0.134390 -0.002953 
-0.081865 -0.134494 -0.003540 
-0.081507 -0.134698 -0.004203 
-0.081251 -0.134852 -0.004829 
-0.080791 -0.135106 -0.005530 
-0.080433 -0.135310 -0.006193 
-0.079871 -0.135614 -0.006933 
-0.079308 -0.135918 -0.007672 
-0.078848 -0.136172 -0.008373 
-0.078388 -0.136426 -0.009074 
-0.078133 -0.136580 -0.009700 
-0.077877 -0.136734 -0.010325 
-0.077723 -0.136837 -0.010913 
-0.077569 -0.136941 -0.011500 
-0.077416 -0.137045 -0.012088 
-0.077262 -0.137148 -0.012675 
-0.077109 -0.137252 -0.013263 
-0.077159 -0.137255 -0.013774 
-0.077006 -0.137359 -0.014362 
-0.077056 -0.137362 -0.014874 
-0.077005 -0.137415 -0.015423 
-0.077055 -0.137419 -0.015935 
-0.077106 -0.137422 -0.016446 
-0.077157 -0.137425 -0.016958 
-0.077207 -0.137429 -0.017470 
-0.077258 -0.137432 -0.017981 
-0.077309 -0.137435 -0.018493 
-0.077257 -0.137489 -0.019043 
-0.077308 -0.137492 -0.019554 
-0.077256 -0.137545 -0.020104 
-0.077205 -0.137599 -0.020654 
-0.077051 -0.137702 -0.021241 
-0.076795 -0.137856 -0.021867 
-0.076437 -0.138060 -0.022530 
-0.076182 -0.138214 -0.023155 
-0.075722 -0.138468 -0.023857 
-0.075262 -0.138722 -0.024558 
-0.074495 -0.139126 -0.025373 
-0.073626 -0.139581 -0.026226 
0.009117 -0.172242 0.101369 
0.008964 -0.172195 0.100895 
0.008811 -0.172148 0.100421 
0.007784 -0.171686 0.100271 
0.007522 -0.171588 0.099837 
0.007260 -0.171489 0.099404 
-0.005895 -0.165267 0.103735 
-0.006485 -0.165013 0.103423 
-0.008168 -0.164239 0.103515 
-0.009850 -0.163466 0.103606 
-0.010659 -0.163108 0.103375 
-0.011904 -0.162542 0.103305 
-0.012931 -0.162080 0.103154 
-0.013958 -0.161618 0.103003 
-0.014957 -0.161163 0.102843 
-0.015518 -0.160915 0.102521 
-0.020470 -0.158507 0.103829 
-0.021440 -0.158058 0.103658 
-0.022307 -0.157660 0.103450 
-0.023481 -0.157111 0.103355 
-0.024655 -0.156562 0.103260 
-0.025625 -0.156113 0.103090 
-0.026186 -0.155865 0.102768 
-0.026850 -0.155567 0.102483 
-0.027309 -0.155370 0.102123 
-0.029708 -0.154218 0.102484 
-0.030984 -0.153618 0.102427 
-0.031750 -0.153270 0.102181 
-0.032515 -0.152922 0.101934 
-0.033281 -0.152573 0.101688 
-0.033842 -0.152326 0.101366 
-0.034403 -0.152078 0.101044 
-0.034964 -0.151830 0.100722 
-0.035424 -0.151632 0.100362 
-0.035985 -0.151385 0.100039 
-0.036546 -0.151137 0.099717 
-0.037107 -0.150889 0.099395 
-0.037464 -0.150742 0.098997 
-0.038026 -0.150494 0.098675 
-0.038587 -0.150246 0.098353 
-0.039148 -0.149998 0.098031 
-0.039607 -0.149801 0.097671 
-0.040067 -0.149603 0.097311 
-0.040730 -0.149305 0.097027 
-0.041189 -0.149107 0.096666 
-0.041648 -0.148910 0.096306 
-0.042005 -0.148763 0.095909 
-0.042464 -0.148565 0.095548 
-0.042719 -0.148468 0.095113 
-0.043179 -0.148270 0.094753 
-0.043536 -0.148123 0.094355 
-0.043791 -0.148026 0.093919 
-0.044250 -0.147828 0.093559 
-0.044505 -0.147731 0.093123 
-0.044760 -0.147634 0.092687 
-0.045014 -0.147537 0.092251 
-0.045269 -0.147440 0.091815 
-0.045729 -0.147242 0.091455 
-0.046086 -0.147095 0.091057 
-0.046647 -0.146847 0.090735 
-0.047617 -0.146398 0.090565 
-0.048178 -0.146151 0.090243 
-0.048535 -0.146003 0.089845 
-0.048892 -0.145856 0.089447 
-0.049147 -0.145759 0.089011 
-0.049504 -0.145611 0.088613 
-0.049759 -0.145514 0.088177 
-0.050014 -0.145417 0.087741 
-0.050167 -0.145370 0.087267 
-0.050422 -0.145273 0.086832 
-0.050881 -0.145076 0.086472 
-0.051340 -0.144878 0.086112 
-0.051493 -0.144831 0.085638 
-0.051850 -0.144684 0.085240 
-0.052207 -0.144536 0.084842 
-0.052462 -0.144439 0.084406 
-0.052819 -0.144292 0.084008 
-0.053278 -0.144094 0.083648 
-0.053635 -0.143947 0.083250 
-0.054094 -0.143749 0.082890 
-0.054451 -0.143602 0.082492 
-0.054910 -0.143405 0.082132 
-0.055267 -0.143257 0.081734 
-0.055522 -0.143160 0.081298 
-0.055879 -0.143013 0.080900 
-0.056134 -0.142916 0.080464 
-0.056389 -0.142818 0.080029 
-0.056644 -0.142721 0.079593 
-0.056797 -0.142674 0.079119 
-0.057154 -0.142527 0.078721 
-0.057307 -0.142480 0.078247 
-0.057562 -0.142383 0.077811 
-0.057817 -0.142286 0.077376 
-0.058174 -0.142139 0.076978 
-0.058428 -0.142042 0.076542 
-0.058683 -0.141944 0.076106 
-0.059040 -0.141797 0.075708 
-0.059193 -0.141750 0.075234 
-0.059448 -0.141653 0.074798 
-0.059703 -0.141556 0.074363 
-0.059856 -0.141509 0.073889 
-0.060009 -0.141462 0.073415 
-0.060264 -0.141365 0.072979 
-0.060519 -0.141268 0.072543 
-0.060671 -0.141221 0.072070 
-0.060926 -0.141124 0.071634 
-0.061079 -0.141077 0.071160 
-0.061232 -0.141030 0.070686 
-0.061385 -0.140983 0.070212 
-0.061538 -0.140936 0.069739 
-0.061588 -0.140940 0.069227 
-0.061639 -0.140943 0.068715 
-0.061792 -0.140896 0.068242 
-0.061843 -0.140900 0.067730 
-0.061893 -0.140903 0.067218 
-0.061944 -0.140906 0.066707 
-0.061995 -0.140910 0.066195 
-0.062045 -0.140913 0.065683 
-0.062096 -0.140916 0.065172 
-0.062147 -0.140920 0.064660 
-0.062095 -0.140973 0.064110 
-0.062146 -0.140977 0.063599 
-0.062197 -0.140980 0.063087 
-0.062247 -0.140983 0.062575 
-0.062400 -0.140936 0.062102 
-0.062349 -0.140990 0.061552 
-0.062400 -0.140993 0.061040 
-0.062450 -0.140997 0.060529 
-0.062399 -0.141050 0.059979 
-0.062450 -0.141054 0.059467 
-0.062500 -0.141057 0.058956 
-0.062551 -0.141060 0.058444 
-0.062602 -0.141064 0.057932 
-0.062652 -0.141067 0.057421 
-0.062601 -0.141121 0.056871 
-0.062652 -0.141124 0.056359 
-0.062498 -0.141228 0.055772 
-0.062549 -0.141231 0.055260 
-0.062497 -0.141285 0.054711 
-0.062548 -0.141288 0.054199 
-0.062395 -0.141392 0.053612 
-0.062343 -0.141445 0.053062 
-0.062190 -0.141549 0.052475 
-0.062138 -0.141603 0.051925 
-0.062087 -0.141656 0.051375 
-0.061933 -0.141760 0.050788 
-0.061780 -0.141864 0.050200 
-0.061626 -0.141968 0.049613 
-0.061473 -0.142071 0.049025 
-0.061217 -0.142225 0.048400 
-0.061064 -0.142329 0.047813 
-0.060910 -0.142433 0.047225 
-0.060756 -0.142537 0.046638 
-0.060603 -0.142641 0.046050 
-0.060347 -0.142795 0.045425 
-0.060092 -0.142949 0.044799 
-0.059938 -0.143052 0.044212 
-0.059580 -0.143257 0.043548 
-0.059427 -0.143361 0.042961 
-0.059171 -0.143515 0.042336 
-0.059018 -0.143618 0.041748 
-0.058660 -0.143823 0.041085 
-0.058302 -0.144027 0.040422 
-0.058149 -0.144131 0.039834 
-0.057893 -0.144285 0.039209 
-0.057637 -0.144439 0.038583 
-0.057280 -0.144643 0.037920 
-0.056922 -0.144847 0.037257 
-0.056564 -0.145052 0.036593 
-0.056411 -0.145155 0.036006 
-0.056359 -0.145209 0.035456 
-0.056206 -0.145313 0.034869 
-0.056052 -0.145417 0.034281 
-0.055899 -0.145520 0.033694 
-0.055745 -0.145624 0.033106 
-0.055694 -0.145678 0.032557 
-0.055540 -0.145781 0.031969 
-0.055489 -0.145835 0.031420 
-0.055539 -0.145838 0.030908 
-0.055590 -0.145842 0.030396 
-0.055641 -0.145845 0.029885 
-0.055794 -0.145798 0.029411 
-0.055844 -0.145802 0.028899 
-0.055895 -0.145805 0.028388 
-0.056048 -0.145758 0.027914 
-0.056099 -0.145761 0.027402 
-0.056251 -0.145715 0.026928 
-0.056302 -0.145718 0.026417 
-0.056455 -0.145671 0.025943 
-0.056506 -0.145674 0.025431 
-0.056556 -0.145678 0.024920 
-0.056709 -0.145631 0.024446 
-0.056658 -0.145684 0.023896 
-0.056708 -0.145688 0.023385 
-0.056759 -0.145691 0.022873 
-0.056912 -0.145644 0.022399 
-0.056861 -0.145698 0.021850 
-0.056911 -0.145701 0.021338 
-0.056962 -0.145704 0.020826 
-0.056911 -0.145758 0.020277 
-0.056961 -0.145761 0.019765 
-0.056910 -0.145815 0.019215 
-0.056858 -0.145868 0.018666 
-0.056909 -0.145872 0.018154 
-0.056960 -0.145875 0.017643 
-0.057011 -0.145878 0.017131 
-0.057061 -0.145882 0.016619 
-0.057112 -0.145885 0.016108 
-0.057265 -0.145838 0.015634 
-0.057315 -0.145842 0.015122 
-0.057570 -0.145744 0.014686 
-0.057723 -0.145698 0.014212 
-0.058080 -0.145550 0.013815 
-0.058335 -0.145453 0.013379 
-0.058692 -0.145306 0.012981 
-0.059049 -0.145158 0.012583 
-0.059406 -0.145011 0.012185 
-0.059763 -0.144864 0.011787 
-0.060120 -0.144716 0.011389 
-0.060477 -0.144569 0.010991 
-0.060834 -0.144422 0.010593 
-0.061192 -0.144274 0.010195 
-0.061651 -0.144077 0.009835 
-0.062008 -0.143929 0.009437 
-0.062467 -0.143732 0.009077 
-0.062926 -0.143534 0.008717 
-0.063385 -0.143337 0.008357 
-0.064049 -0.143039 0.008073 
-0.064610 -0.142791 0.007751 
-0.065069 -0.142593 0.007391 
-0.065630 -0.142346 0.007069 
-0.066294 -0.142048 0.006784 
-0.066855 -0.141800 0.006462 
-0.067416 -0.141552 0.006140 
-0.067977 -0.141304 0.005818 
-0.068641 -0.141006 0.005534 
-0.069508 -0.140608 0.005325 
-0.070172 -0.140309 0.005041 
-0.070222 -0.140313 0.004529 
-0.073847 -0.138558 0.005345 
-0.074511 -0.138260 0.005060 
-0.075276 -0.137912 0.004814 
-0.076654 -0.137262 0.004795 
-0.077215 -0.137014 0.004473 
-0.077879 -0.136716 0.004189 
-0.078542 -0.136418 0.003905 
-0.078899 -0.136271 0.003507 
-0.079256 -0.136124 0.003109 
-0.080022 -0.135775 0.002862 
-0.080379 -0.135628 0.002464 
-0.080736 -0.135481 0.002067 
-0.081297 -0.135233 0.001744 
-0.081450 -0.135186 0.001271 
-0.081603 -0.135139 0.000797 
-0.081654 -0.135142 0.000285 
-0.081806 -0.135096 -0.000189 
-0.081857 -0.135099 -0.000700 
-0.081908 -0.135102 -0.001212 
-0.081754 -0.135206 -0.001799 
-0.081805 -0.135209 -0.002311 
-0.081549 -0.135363 -0.002936 
-0.081498 -0.135417 -0.003486 
-0.081344 -0.135521 -0.004074 
-0.080987 -0.135725 -0.004737 
-0.080731 -0.135879 -0.005362 
-0.080475 -0.136033 -0.005988 
-0.080015 -0.136288 -0.006689 
-0.079658 -0.136492 -0.007352 
-0.079198 -0.136746 -0.008053 
-0.078840 -0.136951 -0.008717 
-0.078482 -0.137155 -0.009380 
-0.078329 -0.137259 -0.009967 
-0.078175 -0.137362 -0.010555 
-0.078022 -0.137466 -0.011142 
-0.077868 -0.137570 -0.011730 
-0.077715 -0.137674 -0.012317 
-0.077663 -0.137727 -0.012867 
-0.077612 -0.137781 -0.013417 
-0.077458 -0.137885 -0.014004 
-0.077407 -0.137938 -0.014554 
-0.077458 -0.137942 -0.015065 
-0.077406 -0.137995 -0.015615 
-0.077355 -0.138049 -0.016164 
-0.077405 -0.138052 -0.016676 
-0.077456 -0.138056 -0.017188 
-0.077507 -0.138059 -0.017699 
-0.077558 -0.138062 -0.018211 
-0.077506 -0.138116 -0.018761 
-0.077557 -0.138119 -0.019272 
-0.077403 -0.138223 -0.019860 
-0.077352 -0.138277 -0.020409 
-0.077198 -0.138380 -0.020997 
-0.076943 -0.138534 -0.021622 
-0.076687 -0.138688 -0.022248 
-0.076329 -0.138893 -0.022911 
-0.076074 -0.139047 -0.023536 
-0.075512 -0.139351 -0.024275 
-0.075052 -0.139606 -0.024977 
-0.074082 -0.140112 -0.025867 
-0.073520 -0.140416 -0.026607 
0.008917 -0.172954 0.101099 
0.008873 -0.172959 0.100585 
0.008611 -0.172860 0.100152 
0.007694 -0.172449 0.099960 
0.007323 -0.172299 0.099567 
0.006951 -0.172148 0.099174 
-0.004233 -0.166853 0.102778 
-0.006680 -0.165715 0.103152 
-0.007597 -0.165305 0.102961 
-0.010262 -0.164063 0.103416 
-0.010852 -0.163808 0.103104 
-0.011878 -0.163346 0.102953 
-0.012687 -0.162987 0.102721 
-0.013604 -0.162577 0.102530 
-0.014194 -0.162322 0.102218 
-0.015002 -0.161963 0.101987 
-0.020572 -0.159249 0.103524 
-0.021847 -0.158649 0.103467 
-0.022510 -0.158350 0.103183 
-0.023480 -0.157901 0.103012 
-0.024653 -0.157351 0.102918 
-0.025623 -0.156902 0.102747 
-0.026286 -0.156604 0.102463 
-0.027051 -0.156255 0.102217 
-0.027408 -0.156108 0.101819 
-0.027663 -0.156010 0.101383 
-0.031082 -0.154354 0.102122 
-0.032154 -0.153854 0.101989 
-0.032613 -0.153657 0.101629 
-0.033378 -0.153308 0.101383 
-0.033939 -0.153060 0.101061 
-0.034500 -0.152812 0.100739 
-0.034959 -0.152614 0.100378 
-0.035418 -0.152416 0.100018 
-0.036082 -0.152118 0.099734 
-0.036541 -0.151920 0.099374 
-0.037102 -0.151672 0.099052 
-0.037663 -0.151424 0.098730 
-0.038224 -0.151176 0.098408 
-0.038785 -0.150928 0.098086 
-0.039244 -0.150730 0.097725 
-0.039805 -0.150482 0.097403 
-0.040264 -0.150284 0.097043 
-0.040723 -0.150086 0.096683 
-0.041284 -0.149838 0.096361 
-0.041641 -0.149691 0.095963 
-0.042100 -0.149493 0.095603 
-0.042559 -0.149295 0.095243 
-0.042916 -0.149148 0.094845 
-0.043273 -0.149000 0.094447 
-0.043528 -0.148903 0.094011 
-0.043885 -0.148756 0.093613 
-0.044242 -0.148608 0.093215 
-0.044497 -0.148511 0.092779 
-0.044752 -0.148414 0.092344 
-0.045007 -0.148317 0.091908 
-0.045262 -0.148219 0.091472 
-0.045517 -0.148122 0.091036 
-0.045772 -0.148025 0.090600 
-0.045924 -0.147978 0.090126 
-0.046383 -0.147780 0.089766 
-0.047965 -0.147029 0.089823 
-0.048526 -0.146781 0.089501 
-0.048781 -0.146684 0.089065 
-0.049138 -0.146537 0.088667 
-0.049393 -0.146439 0.088231 
-0.049648 -0.146342 0.087796 
-0.049801 -0.146295 0.087322 
-0.050056 -0.146198 0.086886 
-0.050208 -0.146151 0.086412 
-0.050361 -0.146104 0.085938 
-0.050616 -0.146007 0.085503 
-0.050973 -0.145860 0.085105 
-0.051330 -0.145712 0.084707 
-0.051687 -0.145565 0.084309 
-0.052146 -0.145367 0.083949 
-0.052401 -0.145270 0.083513 
-0.052962 -0.145022 0.083191 
-0.053421 -0.144824 0.082831 
-0.053880 -0.144626 0.082471 
-0.054237 -0.144479 0.082073 
-0.054594 -0.144331 0.081675 
-0.054849 -0.144234 0.081239 
-0.055206 -0.144087 0.080841 
-0.055461 -0.143989 0.080405 
-0.055716 -0.143892 0.079969 
-0.055971 -0.143795 0.079533 
-0.056328 -0.143648 0.079135 
-0.056685 -0.143500 0.078737 
-0.056939 -0.143403 0.078301 
-0.057194 -0.143306 0.077866 
-0.057551 -0.143158 0.077468 
-0.057806 -0.143061 0.077032 
-0.058061 -0.142964 0.076596 
-0.058316 -0.142867 0.076160 
-0.058673 -0.142719 0.075762 
-0.058928 -0.142622 0.075326 
-0.059081 -0.142575 0.074852 
-0.059336 -0.142478 0.074417 
-0.059590 -0.142381 0.073981 
-0.059845 -0.142284 0.073545 
-0.059998 -0.142237 0.073071 
-0.060355 -0.142089 0.072673 
-0.060508 -0.142042 0.072199 
-0.060763 -0.141945 0.071764 
-0.060916 -0.141898 0.071290 
-0.061068 -0.141851 0.070816 
-0.061221 -0.141804 0.070342 
-0.061374 -0.141758 0.069868 
-0.061425 -0.141761 0.069357 
-0.061476 -0.141764 0.068845 
-0.061628 -0.141717 0.068371 
-0.061781 -0.141671 0.067898 
-0.061832 -0.141674 0.067386 
-0.061883 -0.141677 0.066874 
-0.061933 -0.141681 0.066363 
-0.061882 -0.141735 0.065813 
-0.062035 -0.141688 0.065339 
-0.062086 -0.141691 0.064828 
-0.062136 -0.141694 0.064316 
-0.062187 -0.141698 0.063804 
-0.062136 -0.141752 0.063255 
-0.062289 -0.141705 0.062781 
-0.062339 -0.141708 0.062269 
-0.062288 -0.141762 0.061720 
-0.062339 -0.141765 0.061208 
-0.062389 -0.141769 0.060696 
-0.062338 -0.141822 0.060147 
-0.062389 -0.141826 0.059635 
-0.062440 -0.141829 0.059124 
-0.062592 -0.141782 0.058650 
-0.062643 -0.141786 0.058138 
-0.062592 -0.141839 0.057589 
-0.062643 -0.141843 0.057077 
-0.062591 -0.141897 0.056527 
-0.062540 -0.141950 0.055978 
-0.062489 -0.142004 0.055428 
-0.062437 -0.142058 0.054879 
-0.062386 -0.142111 0.054329 
-0.062335 -0.142165 0.053780 
-0.062283 -0.142219 0.053230 
-0.062232 -0.142273 0.052680 
-0.062181 -0.142326 0.052131 
-0.062027 -0.142430 0.051543 
-0.061976 -0.142484 0.050994 
-0.061822 -0.142588 0.050406 
-0.061567 -0.142742 0.049781 
-0.061414 -0.142846 0.049193 
-0.061260 -0.142950 0.048606 
-0.061107 -0.143054 0.048019 
-0.060851 -0.143209 0.047393 
-0.060800 -0.143262 0.046844 
-0.060544 -0.143417 0.046218 
-0.060391 -0.143521 0.045631 
-0.060136 -0.143675 0.045005 
-0.059880 -0.143829 0.044380 
-0.059625 -0.143983 0.043755 
-0.059573 -0.144037 0.043205 
-0.059216 -0.144242 0.042542 
-0.058960 -0.144396 0.041916 
-0.058705 -0.144550 0.041291 
-0.058449 -0.144705 0.040666 
-0.058194 -0.144859 0.040040 
-0.057836 -0.145064 0.039377 
-0.057479 -0.145268 0.038714 
-0.057223 -0.145422 0.038088 
-0.056866 -0.145627 0.037425 
-0.056610 -0.145781 0.036800 
-0.056559 -0.145835 0.036250 
-0.056303 -0.145989 0.035625 
-0.056252 -0.146043 0.035075 
-0.056099 -0.146147 0.034488 
-0.055843 -0.146301 0.033862 
-0.055690 -0.146405 0.033275 
-0.055638 -0.146459 0.032725 
-0.055485 -0.146563 0.032138 
-0.055536 -0.146566 0.031626 
-0.055586 -0.146570 0.031115 
-0.055739 -0.146523 0.030641 
-0.055790 -0.146526 0.030129 
-0.055841 -0.146530 0.029618 
-0.055994 -0.146483 0.029144 
-0.056044 -0.146486 0.028632 
-0.056095 -0.146490 0.028120 
-0.056248 -0.146443 0.027647 
-0.056299 -0.146446 0.027135 
-0.056451 -0.146399 0.026661 
-0.056604 -0.146352 0.026188 
-0.056655 -0.146356 0.025676 
-0.056706 -0.146359 0.025164 
-0.056756 -0.146363 0.024653 
-0.056909 -0.146316 0.024179 
-0.056960 -0.146319 0.023667 
-0.056909 -0.146373 0.023118 
-0.057061 -0.146326 0.022644 
-0.057010 -0.146380 0.022094 
-0.057061 -0.146383 0.021583 
-0.057112 -0.146387 0.021071 
-0.057060 -0.146440 0.020521 
-0.057111 -0.146444 0.020010 
-0.057060 -0.146497 0.019460 
-0.057008 -0.146551 0.018910 
-0.057059 -0.146555 0.018399 
-0.057110 -0.146558 0.017887 
-0.057161 -0.146561 0.017376 
-0.057211 -0.146565 0.016864 
-0.057262 -0.146568 0.016352 
-0.057313 -0.146572 0.015841 
-0.057466 -0.146525 0.015367 
-0.057618 -0.146478 0.014893 
-0.057975 -0.146330 0.014495 
-0.058230 -0.146233 0.014059 
-0.058587 -0.146086 0.013661 
-0.058944 -0.145938 0.013263 
-0.059301 -0.145791 0.012865 
-0.059658 -0.145643 0.012467 
-0.060117 -0.145445 0.012107 
-0.060474 -0.145298 0.011709 
-0.060831 -0.145150 0.011311 
-0.061188 -0.145003 0.010913 
-0.061545 -0.144856 0.010515 
-0.061902 -0.144708 0.010118 
-0.062361 -0.144510 0.009757 
-0.062820 -0.144313 0.009397 
-0.063279 -0.144115 0.009037 
-0.063738 -0.143917 0.008677 
-0.064299 -0.143669 0.008355 
-0.064860 -0.143421 0.008033 
-0.065422 -0.143173 0.007711 
-0.065880 -0.142975 0.007351 
-0.066544 -0.142677 0.007067 
-0.067105 -0.142429 0.006744 
-0.067666 -0.142180 0.006422 
-0.068227 -0.141932 0.006100 
-0.068788 -0.141684 0.005778 
-0.069451 -0.141386 0.005494 
-0.070217 -0.141037 0.005247 
-0.070574 -0.140890 0.004849 
-0.070930 -0.140742 0.004451 
-0.074146 -0.139186 0.005115 
-0.074605 -0.138989 0.004755 
-0.075472 -0.138590 0.004546 
-0.076339 -0.138191 0.004338 
-0.077002 -0.137892 0.004054 
-0.077564 -0.137644 0.003731 
-0.078227 -0.137346 0.003447 
-0.078890 -0.137048 0.003163 
-0.079145 -0.136950 0.002727 
-0.079604 -0.136753 0.002367 
-0.080165 -0.136505 0.002045 
-0.080420 -0.136407 0.001609 
-0.080879 -0.136210 0.001249 
-0.081134 -0.136112 0.000813 
-0.081389 -0.136015 0.000377 
-0.081439 -0.136019 -0.000134 
-0.081490 -0.136022 -0.000646 
-0.081541 -0.136025 -0.001158 
-0.081592 -0.136029 -0.001669 
-0.081540 -0.136083 -0.002219 
-0.081387 -0.136187 -0.002806 
-0.081336 -0.136240 -0.003356 
-0.081080 -0.136395 -0.003981 
-0.080927 -0.136499 -0.004569 
-0.080773 -0.136603 -0.005156 
-0.080416 -0.136807 -0.005820 
-0.080160 -0.136961 -0.006445 
-0.079905 -0.137116 -0.007070 
-0.079649 -0.137270 -0.007696 
-0.079292 -0.137475 -0.008359 
-0.079036 -0.137629 -0.008984 
-0.078781 -0.137783 -0.009610 
-0.078627 -0.137887 -0.010197 
-0.078474 -0.137991 -0.010785 
-0.078320 -0.138095 -0.011372 
-0.078167 -0.138199 -0.011960 
-0.078116 -0.138253 -0.012509 
-0.077962 -0.138357 -0.013097 
-0.077911 -0.138411 -0.013646 
-0.077860 -0.138464 -0.014196 
-0.077808 -0.138518 -0.014745 
-0.077757 -0.138572 -0.015295 
-0.077706 -0.138626 -0.015844 
-0.077756 -0.138629 -0.016356 
-0.077807 -0.138632 -0.016868 
-0.077756 -0.138686 -0.017417 
-0.077807 -0.138690 -0.017929 
-0.077755 -0.138743 -0.018479 
-0.077704 -0.138797 -0.019028 
-0.077755 -0.138800 -0.019540 
-0.077499 -0.138955 -0.020165 
-0.077346 -0.139059 -0.020753 
-0.077192 -0.139163 -0.021340 
-0.076937 -0.139317 -0.021965 
-0.076681 -0.139471 -0.022591 
-0.076324 -0.139676 -0.023254 
-0.075864 -0.139931 -0.023955 
-0.075507 -0.140135 -0.024619 
-0.074639 -0.140591 -0.025471 
-0.074077 -0.140897 -0.026210 
-0.073515 -0.141202 -0.026949 
0.008935 -0.173770 0.100748 
0.008892 -0.173775 0.100234 
0.008521 -0.173624 0.099841 
0.007713 -0.173265 0.099610 
0.007014 -0.172958 0.099338 
0.006752 -0.172859 0.098904 
-0.004538 -0.167506 0.102548 
-0.006874 -0.166418 0.102882 
-0.007791 -0.166007 0.102690 
-0.010128 -0.164920 0.103024 
-0.010826 -0.164613 0.102752 
-0.011962 -0.164098 0.102642 
-0.012770 -0.163739 0.102410 
-0.013468 -0.163432 0.102138 
-0.014058 -0.163177 0.101826 
-0.014648 -0.162922 0.101514 
-0.015237 -0.162667 0.101201 
-0.021949 -0.159390 0.103163 
-0.022714 -0.159041 0.102916 
-0.023479 -0.158692 0.102670 
-0.024448 -0.158242 0.102499 
-0.025417 -0.157792 0.102329 
-0.026182 -0.157443 0.102082 
-0.026947 -0.157094 0.101836 
-0.027406 -0.156896 0.101476 
-0.027661 -0.156799 0.101040 
-0.028120 -0.156601 0.100680 
-0.032048 -0.154691 0.101608 
-0.032711 -0.154392 0.101324 
-0.033476 -0.154043 0.101078 
-0.034037 -0.153795 0.100756 
-0.034496 -0.153597 0.100395 
-0.035057 -0.153348 0.100073 
-0.035516 -0.153150 0.099713 
-0.036077 -0.152902 0.099391 
-0.036535 -0.152704 0.099031 
-0.037198 -0.152405 0.098747 
-0.037759 -0.152157 0.098425 
-0.038218 -0.151959 0.098064 
-0.038779 -0.151711 0.097742 
-0.039238 -0.151513 0.097382 
-0.039799 -0.151264 0.097060 
-0.040156 -0.151117 0.096662 
-0.040717 -0.150868 0.096340 
-0.041176 -0.150670 0.095980 
-0.041635 -0.150472 0.095620 
-0.042094 -0.150274 0.095260 
-0.042553 -0.150076 0.094900 
-0.042808 -0.149979 0.094464 
-0.043266 -0.149781 0.094104 
-0.043623 -0.149634 0.093706 
-0.043878 -0.149536 0.093270 
-0.044235 -0.149389 0.092872 
-0.044592 -0.149241 0.092474 
-0.044847 -0.149144 0.092038 
-0.045102 -0.149046 0.091602 
-0.045356 -0.148949 0.091166 
-0.045611 -0.148852 0.090730 
-0.045764 -0.148805 0.090257 
-0.046019 -0.148708 0.089821 
-0.046274 -0.148611 0.089385 
-0.046529 -0.148513 0.088949 
-0.046988 -0.148315 0.088589 
-0.048467 -0.147614 0.088608 
-0.048824 -0.147466 0.088210 
-0.049180 -0.147318 0.087812 
-0.049538 -0.147171 0.087414 
-0.049691 -0.147124 0.086940 
-0.050047 -0.146977 0.086542 
-0.050200 -0.146930 0.086069 
-0.050353 -0.146883 0.085595 
-0.050608 -0.146785 0.085159 
-0.050863 -0.146688 0.084723 
-0.051117 -0.146591 0.084287 
-0.051270 -0.146544 0.083813 
-0.051525 -0.146447 0.083378 
-0.051882 -0.146299 0.082980 
-0.052239 -0.146151 0.082582 
-0.052698 -0.145954 0.082222 
-0.053157 -0.145756 0.081862 
-0.053718 -0.145507 0.081539 
-0.054177 -0.145310 0.081179 
-0.054534 -0.145162 0.080781 
-0.054788 -0.145064 0.080345 
-0.055145 -0.144916 0.079947 
-0.055400 -0.144819 0.079512 
-0.055655 -0.144723 0.079076 
-0.056012 -0.144575 0.078678 
-0.056267 -0.144477 0.078242 
-0.056726 -0.144279 0.077882 
-0.057082 -0.144132 0.077484 
-0.057337 -0.144035 0.077048 
-0.057388 -0.144038 0.076536 
-0.057643 -0.143941 0.076100 
-0.057898 -0.143843 0.075665 
-0.058254 -0.143696 0.075267 
-0.058611 -0.143548 0.074869 
-0.058969 -0.143401 0.074471 
-0.059223 -0.143303 0.074035 
-0.059478 -0.143206 0.073599 
-0.059835 -0.143059 0.073201 
-0.059988 -0.143012 0.072727 
-0.060345 -0.142864 0.072329 
-0.060498 -0.142817 0.071856 
-0.060753 -0.142720 0.071420 
-0.060905 -0.142673 0.070946 
-0.061058 -0.142627 0.070472 
-0.061211 -0.142580 0.069998 
-0.061262 -0.142583 0.069487 
-0.061312 -0.142586 0.068975 
-0.061465 -0.142539 0.068501 
-0.061516 -0.142543 0.067990 
-0.061669 -0.142496 0.067516 
-0.061618 -0.142550 0.066966 
-0.061770 -0.142503 0.066493 
-0.061821 -0.142506 0.065981 
-0.061872 -0.142510 0.065469 
-0.061923 -0.142513 0.064958 
-0.062075 -0.142466 0.064484 
-0.062024 -0.142520 0.063934 
-0.062075 -0.142523 0.063423 
-0.062126 -0.142527 0.062911 
-0.062279 -0.142481 0.062437 
-0.062228 -0.142534 0.061888 
-0.062278 -0.142538 0.061376 
-0.062227 -0.142592 0.060826 
-0.062277 -0.142595 0.060315 
-0.062328 -0.142599 0.059803 
-0.062379 -0.142602 0.059291 
-0.062532 -0.142555 0.058818 
-0.062583 -0.142559 0.058306 
-0.062532 -0.142613 0.057757 
-0.062480 -0.142666 0.057207 
-0.062531 -0.142670 0.056695 
-0.062480 -0.142724 0.056146 
-0.062429 -0.142778 0.055596 
-0.062377 -0.142831 0.055047 
-0.062428 -0.142835 0.054535 
-0.062377 -0.142889 0.053985 
-0.062326 -0.142943 0.053436 
-0.062172 -0.143047 0.052848 
-0.062121 -0.143101 0.052299 
-0.061865 -0.143255 0.051673 
-0.061814 -0.143308 0.051124 
-0.061661 -0.143413 0.050537 
-0.061508 -0.143517 0.049949 
-0.061354 -0.143621 0.049362 
-0.061201 -0.143726 0.048774 
-0.061048 -0.143830 0.048187 
-0.060895 -0.143934 0.047599 
-0.060741 -0.144038 0.047012 
-0.060486 -0.144193 0.046386 
-0.060333 -0.144297 0.045799 
-0.060179 -0.144401 0.045212 
-0.059822 -0.144606 0.044548 
-0.059567 -0.144761 0.043923 
-0.059414 -0.144865 0.043336 
-0.059158 -0.145019 0.042710 
-0.058801 -0.145224 0.042047 
-0.058545 -0.145379 0.041422 
-0.058290 -0.145534 0.040796 
-0.058035 -0.145688 0.040171 
-0.057677 -0.145893 0.039508 
-0.057320 -0.146098 0.038844 
-0.057065 -0.146253 0.038219 
-0.056809 -0.146407 0.037594 
-0.056554 -0.146562 0.036968 
-0.056503 -0.146616 0.036419 
-0.056350 -0.146720 0.035831 
-0.056196 -0.146824 0.035244 
-0.056043 -0.146928 0.034656 
-0.055788 -0.147083 0.034031 
-0.055634 -0.147187 0.033444 
-0.055583 -0.147241 0.032894 
-0.055532 -0.147295 0.032345 
-0.055583 -0.147298 0.031833 
-0.055634 -0.147302 0.031321 
-0.055786 -0.147255 0.030847 
-0.055735 -0.147309 0.030298 
-0.055888 -0.147262 0.029824 
-0.056041 -0.147215 0.029350 
-0.056193 -0.147168 0.028877 
-0.056244 -0.147171 0.028365 
-0.056397 -0.147125 0.027891 
-0.056448 -0.147128 0.027380 
-0.056601 -0.147081 0.026906 
-0.056754 -0.147034 0.026432 
-0.056804 -0.147038 0.025920 
-0.056855 -0.147041 0.025409 
-0.056906 -0.147045 0.024897 
-0.057059 -0.146998 0.024423 
-0.057109 -0.147001 0.023912 
-0.057160 -0.147005 0.023400 
-0.057211 -0.147008 0.022888 
-0.057160 -0.147062 0.022339 
-0.057313 -0.147015 0.021865 
-0.057261 -0.147069 0.021315 
-0.057312 -0.147073 0.020804 
-0.057261 -0.147126 0.020254 
-0.057210 -0.147180 0.019705 
-0.057158 -0.147234 0.019155 
-0.057209 -0.147237 0.018643 
-0.057260 -0.147241 0.018132 
-0.057311 -0.147244 0.017620 
-0.057259 -0.147298 0.017071 
-0.057412 -0.147251 0.016597 
-0.057463 -0.147255 0.016085 
-0.057616 -0.147208 0.015611 
-0.057769 -0.147161 0.015138 
-0.058125 -0.147014 0.014740 
-0.058380 -0.146916 0.014304 
-0.058737 -0.146769 0.013906 
-0.059196 -0.146571 0.013546 
-0.059655 -0.146373 0.013186 
-0.059910 -0.146275 0.012750 
-0.060369 -0.146077 0.012390 
-0.060726 -0.145930 0.011992 
-0.061083 -0.145782 0.011594 
-0.061439 -0.145635 0.011196 
-0.061898 -0.145437 0.010836 
-0.062255 -0.145289 0.010438 
-0.062612 -0.145141 0.010040 
-0.063071 -0.144943 0.009680 
-0.063530 -0.144745 0.009320 
-0.063989 -0.144547 0.008960 
-0.064652 -0.144249 0.008675 
-0.065111 -0.144051 0.008315 
-0.065570 -0.143853 0.007955 
-0.066131 -0.143604 0.007633 
-0.066692 -0.143356 0.007311 
-0.067253 -0.143108 0.006989 
-0.067814 -0.142859 0.006667 
-0.068375 -0.142611 0.006344 
-0.068936 -0.142363 0.006022 
-0.069598 -0.142064 0.005738 
-0.070261 -0.141765 0.005454 
-0.070720 -0.141567 0.005094 
-0.071179 -0.141369 0.004734 
-0.071638 -0.141171 0.004373 
-0.074342 -0.139865 0.004847 
-0.075005 -0.139566 0.004563 
-0.075872 -0.139167 0.004354 
-0.076535 -0.138868 0.004070 
-0.077096 -0.138620 0.003748 
-0.077555 -0.138422 0.003388 
-0.078116 -0.138173 0.003066 
-0.078677 -0.137926 0.002743 
-0.079034 -0.137778 0.002346 
-0.079391 -0.137630 0.001948 
-0.079850 -0.137433 0.001587 
-0.080308 -0.137234 0.001227 
-0.080563 -0.137137 0.000792 
-0.080920 -0.136989 0.000394 
-0.081073 -0.136943 -0.000080 
-0.081123 -0.136946 -0.000592 
-0.081276 -0.136899 -0.001066 
-0.081327 -0.136903 -0.001577 
-0.081276 -0.136957 -0.002127 
-0.081327 -0.136960 -0.002639 
-0.081173 -0.137064 -0.003226 
-0.081020 -0.137169 -0.003813 
-0.080969 -0.137222 -0.004363 
-0.080714 -0.137376 -0.004988 
-0.080458 -0.137531 -0.005614 
-0.080305 -0.137635 -0.006201 
-0.080152 -0.137740 -0.006789 
-0.079896 -0.137894 -0.007414 
-0.079641 -0.138049 -0.008039 
-0.079386 -0.138204 -0.008665 
-0.079232 -0.138308 -0.009252 
-0.079079 -0.138412 -0.009839 
-0.078926 -0.138516 -0.010427 
-0.078773 -0.138620 -0.011014 
-0.078721 -0.138674 -0.011564 
-0.078568 -0.138778 -0.012151 
-0.078415 -0.138882 -0.012739 
-0.078363 -0.138936 -0.013288 
-0.078312 -0.138990 -0.013838 
-0.078261 -0.139044 -0.014388 
-0.078210 -0.139098 -0.014937 
-0.078158 -0.139152 -0.015487 
-0.078107 -0.139206 -0.016036 
-0.078056 -0.139259 -0.016586 
-0.078107 -0.139263 -0.017097 
-0.078158 -0.139266 -0.017609 
-0.078106 -0.139320 -0.018159 
-0.078055 -0.139374 -0.018708 
-0.077902 -0.139478 -0.019296 
-0.077850 -0.139532 -0.019845 
-0.077697 -0.139636 -0.020433 
-0.077442 -0.139791 -0.021058 
-0.077187 -0.139945 -0.021683 
-0.077033 -0.140050 -0.022271 
-0.076676 -0.140255 -0.022934 
-0.076319 -0.140460 -0.023597 
-0.075859 -0.140715 -0.024298 
-0.075604 -0.140869 -0.024924 
-0.074736 -0.141326 -0.025776 
-0.074073 -0.141682 -0.026553 
-0.073715 -0.141887 -0.027217 
0.011726 -0.175883 0.099903 
0.008844 -0.174534 0.100438 
0.008801 -0.174539 0.099924 
0.008539 -0.174441 0.099491 
0.007840 -0.174133 0.099219 
0.006814 -0.173670 0.099068 
0.006661 -0.173623 0.098594 
-0.005060 -0.168054 0.102399 
-0.006959 -0.167174 0.102571 
-0.008749 -0.166346 0.102702 
-0.009994 -0.165778 0.102632 
-0.010910 -0.165366 0.102441 
-0.011827 -0.164955 0.102250 
-0.012635 -0.164595 0.102018 
-0.013333 -0.164288 0.101746 
-0.013923 -0.164033 0.101434 
-0.014621 -0.163726 0.101162 
-0.015101 -0.163522 0.100809 
-0.020214 -0.161040 0.102176 
-0.022305 -0.160035 0.102422 
-0.023478 -0.159483 0.102328 
-0.024345 -0.159084 0.102119 
-0.025212 -0.158684 0.101910 
-0.025874 -0.158385 0.101626 
-0.026639 -0.158035 0.101380 
-0.027098 -0.157837 0.101020 
-0.027557 -0.157639 0.100660 
-0.028016 -0.157441 0.100299 
-0.028372 -0.157293 0.099901 
-0.028627 -0.157195 0.099466 
-0.033268 -0.154930 0.100659 
-0.034032 -0.154580 0.100413 
-0.034491 -0.154382 0.100053 
-0.035154 -0.154083 0.099768 
-0.035511 -0.153935 0.099370 
-0.036072 -0.153686 0.099048 
-0.036531 -0.153489 0.098688 
-0.037193 -0.153189 0.098404 
-0.037754 -0.152941 0.098081 
-0.038315 -0.152692 0.097759 
-0.038774 -0.152494 0.097399 
-0.039233 -0.152296 0.097039 
-0.039691 -0.152097 0.096679 
-0.040150 -0.151899 0.096319 
-0.040507 -0.151752 0.095921 
-0.040864 -0.151604 0.095523 
-0.041322 -0.151405 0.095163 
-0.041781 -0.151208 0.094803 
-0.042342 -0.150959 0.094481 
-0.042699 -0.150811 0.094083 
-0.043158 -0.150613 0.093722 
-0.043514 -0.150465 0.093324 
-0.043974 -0.150267 0.092964 
-0.044330 -0.150120 0.092566 
-0.044687 -0.149972 0.092168 
-0.045044 -0.149824 0.091771 
-0.045401 -0.149676 0.091373 
-0.045655 -0.149579 0.090937 
-0.045910 -0.149482 0.090501 
-0.046063 -0.149435 0.090027 
-0.046318 -0.149337 0.089591 
-0.046572 -0.149239 0.089155 
-0.046827 -0.149142 0.088719 
-0.047082 -0.149045 0.088283 
-0.047541 -0.148847 0.087923 
-0.048000 -0.148648 0.087563 
-0.048459 -0.148451 0.087203 
-0.049020 -0.148202 0.086881 
-0.049376 -0.148054 0.086483 
-0.049835 -0.147856 0.086123 
-0.050090 -0.147759 0.085687 
-0.050447 -0.147611 0.085289 
-0.050701 -0.147513 0.084853 
-0.051058 -0.147366 0.084455 
-0.051211 -0.147319 0.083982 
-0.051466 -0.147222 0.083546 
-0.051721 -0.147124 0.083110 
-0.051976 -0.147027 0.082674 
-0.052333 -0.146880 0.082276 
-0.052689 -0.146732 0.081878 
-0.053046 -0.146584 0.081480 
-0.053403 -0.146436 0.081082 
-0.053658 -0.146339 0.080646 
-0.054116 -0.146140 0.080286 
-0.054371 -0.146043 0.079850 
-0.054626 -0.145945 0.079414 
-0.054881 -0.145849 0.078978 
-0.055135 -0.145751 0.078543 
-0.055492 -0.145603 0.078145 
-0.055951 -0.145405 0.077784 
-0.056410 -0.145207 0.077424 
-0.056869 -0.145009 0.077064 
-0.056920 -0.145012 0.076553 
-0.057072 -0.144965 0.076079 
-0.057429 -0.144818 0.075681 
-0.057786 -0.144670 0.075283 
-0.058143 -0.144522 0.074885 
-0.058398 -0.144425 0.074449 
-0.058755 -0.144278 0.074051 
-0.059111 -0.144130 0.073653 
-0.059366 -0.144032 0.073217 
-0.059723 -0.143884 0.072819 
-0.060080 -0.143737 0.072421 
-0.060233 -0.143690 0.071948 
-0.060488 -0.143593 0.071512 
-0.060640 -0.143546 0.071038 
-0.060691 -0.143549 0.070526 
-0.060946 -0.143452 0.070090 
-0.060997 -0.143455 0.069579 
-0.061149 -0.143408 0.069105 
-0.061200 -0.143412 0.068593 
-0.061251 -0.143415 0.068082 
-0.061404 -0.143369 0.067608 
-0.061455 -0.143373 0.067096 
-0.061505 -0.143376 0.066585 
-0.061557 -0.143380 0.066073 
-0.061709 -0.143333 0.065599 
-0.061760 -0.143336 0.065088 
-0.061913 -0.143289 0.064614 
-0.061862 -0.143343 0.064064 
-0.062014 -0.143296 0.063590 
-0.062065 -0.143300 0.063079 
-0.062116 -0.143303 0.062567 
-0.062167 -0.143307 0.062056 
-0.062116 -0.143361 0.061506 
-0.062166 -0.143364 0.060994 
-0.062217 -0.143368 0.060483 
-0.062268 -0.143371 0.059971 
-0.062319 -0.143375 0.059459 
-0.062472 -0.143328 0.058986 
-0.062421 -0.143382 0.058436 
-0.062471 -0.143385 0.057924 
-0.062420 -0.143439 0.057375 
-0.062471 -0.143443 0.056863 
-0.062420 -0.143497 0.056314 
-0.062369 -0.143551 0.055764 
-0.062419 -0.143554 0.055252 
-0.062368 -0.143608 0.054703 
-0.062113 -0.143764 0.054078 
-0.062164 -0.143767 0.053566 
-0.062113 -0.143821 0.053016 
-0.061960 -0.143926 0.052429 
-0.061806 -0.144030 0.051842 
-0.061755 -0.144084 0.051292 
-0.061602 -0.144188 0.050705 
-0.061347 -0.144343 0.050079 
-0.061194 -0.144447 0.049492 
-0.061143 -0.144501 0.048942 
-0.060990 -0.144606 0.048355 
-0.060836 -0.144710 0.047767 
-0.060683 -0.144815 0.047180 
-0.060530 -0.144919 0.046593 
-0.060377 -0.145024 0.046005 
-0.060122 -0.145178 0.045380 
-0.059765 -0.145384 0.044717 
-0.059509 -0.145539 0.044091 
-0.059254 -0.145694 0.043466 
-0.058999 -0.145848 0.042841 
-0.058744 -0.146003 0.042215 
-0.058489 -0.146158 0.041590 
-0.058131 -0.146363 0.040927 
-0.057876 -0.146518 0.040301 
-0.057621 -0.146673 0.039676 
-0.057264 -0.146878 0.039013 
-0.057009 -0.147033 0.038388 
-0.056856 -0.147138 0.037800 
-0.056601 -0.147292 0.037175 
-0.056549 -0.147346 0.036625 
-0.056396 -0.147450 0.036038 
-0.056243 -0.147555 0.035450 
-0.055988 -0.147710 0.034825 
-0.055834 -0.147814 0.034238 
-0.055681 -0.147919 0.033650 
-0.055630 -0.147973 0.033101 
-0.055579 -0.148027 0.032551 
-0.055630 -0.148030 0.032039 
-0.055681 -0.148034 0.031528 
-0.055732 -0.148038 0.031016 
-0.055885 -0.147991 0.030542 
-0.055935 -0.147994 0.030031 
-0.056088 -0.147947 0.029557 
-0.056241 -0.147900 0.029083 
-0.056394 -0.147853 0.028610 
-0.056445 -0.147857 0.028098 
-0.056597 -0.147810 0.027624 
-0.056750 -0.147763 0.027150 
-0.056801 -0.147766 0.026639 
-0.056852 -0.147770 0.026127 
-0.057005 -0.147724 0.025653 
-0.057055 -0.147727 0.025142 
-0.057106 -0.147731 0.024630 
-0.057157 -0.147734 0.024118 
-0.057208 -0.147738 0.023607 
-0.057361 -0.147691 0.023133 
-0.057411 -0.147694 0.022621 
-0.057462 -0.147698 0.022110 
-0.057411 -0.147752 0.021560 
-0.057360 -0.147806 0.021011 
-0.057309 -0.147860 0.020461 
-0.057360 -0.147863 0.019949 
-0.057308 -0.147917 0.019400 
-0.057359 -0.147921 0.018888 
-0.057308 -0.147975 0.018339 
-0.057359 -0.147978 0.017827 
-0.057410 -0.147982 0.017315 
-0.057460 -0.147985 0.016804 
-0.057511 -0.147989 0.016292 
-0.057766 -0.147891 0.015856 
-0.058021 -0.147794 0.015420 
-0.058276 -0.147697 0.014984 
-0.058633 -0.147549 0.014586 
-0.058989 -0.147401 0.014188 
-0.059448 -0.147203 0.013828 
-0.059805 -0.147055 0.013430 
-0.060264 -0.146857 0.013070 
-0.060519 -0.146760 0.012634 
-0.060977 -0.146562 0.012274 
-0.061436 -0.146364 0.011914 
-0.061691 -0.146266 0.011478 
-0.062150 -0.146068 0.011118 
-0.062609 -0.145870 0.010758 
-0.062965 -0.145722 0.010360 
-0.063322 -0.145574 0.009962 
-0.063781 -0.145376 0.009602 
-0.064342 -0.145127 0.009280 
-0.064801 -0.144929 0.008920 
-0.065361 -0.144681 0.008598 
-0.065820 -0.144482 0.008238 
-0.066279 -0.144285 0.007877 
-0.066840 -0.144036 0.007555 
-0.067401 -0.143787 0.007233 
-0.067962 -0.143539 0.006911 
-0.068420 -0.143340 0.006551 
-0.069083 -0.143041 0.006266 
-0.069644 -0.142792 0.005944 
-0.070307 -0.142494 0.005660 
-0.070765 -0.142295 0.005300 
-0.071326 -0.142047 0.004978 
-0.071581 -0.141950 0.004542 
-0.073570 -0.140995 0.004750 
-0.074742 -0.140443 0.004655 
-0.075507 -0.140094 0.004409 
-0.076272 -0.139744 0.004162 
-0.076833 -0.139496 0.003840 
-0.077394 -0.139247 0.003518 
-0.077853 -0.139050 0.003158 
-0.078311 -0.138851 0.002798 
-0.078770 -0.138653 0.002438 
-0.079127 -0.138505 0.002040 
-0.079483 -0.138357 0.001642 
-0.079840 -0.138209 0.001244 
-0.080197 -0.138061 0.000846 
-0.080554 -0.137914 0.000448 
-0.080809 -0.137817 0.000012 
-0.080962 -0.137770 -0.000462 
-0.081012 -0.137773 -0.000973 
-0.081165 -0.137726 -0.001447 
-0.081114 -0.137780 -0.001997 
-0.081165 -0.137784 -0.002508 
-0.081114 -0.137838 -0.003058 
-0.080961 -0.137943 -0.003645 
-0.080910 -0.137997 -0.004195 
-0.080859 -0.138051 -0.004744 
-0.080603 -0.138206 -0.005370 
-0.080552 -0.138259 -0.005919 
-0.080399 -0.138363 -0.006507 
-0.080143 -0.138518 -0.007132 
-0.079991 -0.138623 -0.007720 
-0.079837 -0.138727 -0.008307 
-0.079684 -0.138832 -0.008894 
-0.079531 -0.138936 -0.009482 
-0.079378 -0.139041 -0.010069 
-0.079224 -0.139145 -0.010657 
-0.079071 -0.139249 -0.011244 
-0.079020 -0.139303 -0.011794 
-0.078867 -0.139408 -0.012381 
-0.078816 -0.139462 -0.012931 
-0.078765 -0.139516 -0.013480 
-0.078611 -0.139620 -0.014068 
-0.078560 -0.139674 -0.014617 
-0.078509 -0.139728 -0.015167 
-0.078458 -0.139782 -0.015716 
-0.078407 -0.139836 -0.016266 
-0.078458 -0.139840 -0.016777 
-0.078407 -0.139894 -0.017327 
-0.078355 -0.139948 -0.017877 
-0.078304 -0.140002 -0.018426 
-0.078253 -0.140056 -0.018976 
-0.078100 -0.140160 -0.019563 
-0.078048 -0.140214 -0.020113 
-0.077793 -0.140368 -0.020738 
-0.077538 -0.140523 -0.021363 
-0.077385 -0.140628 -0.021951 
-0.077130 -0.140783 -0.022576 
-0.076773 -0.140988 -0.023239 
-0.076416 -0.141193 -0.023902 
-0.076059 -0.141399 -0.024566 
-0.075395 -0.141755 -0.025343 
-0.074732 -0.142112 -0.026119 
-0.074171 -0.142418 -0.026858 
-0.073916 -0.142573 -0.027484 
